1.427042354042903526e+03,1.434166312868259183e+03,1.440554774501069460e+03,1.446220406125077034e+03,1.451177630160568242e+03,1.455442570115283615e+03,1.459032989579040532e+03,1.461968224294668289e+03,1.464269107284116672e+03,1.465957887059969380e+03,1.467058139008790931e+03,1.467594670092687238e+03,1.467593417078896209e+03,1.467081338572796767e+03,1.466086301197173498e+03,1.464636960328312625e+03,1.462762635867277822e+03,1.460493183590945364e+03,1.457858862691759441e+03,1.454890200175935888e+03,1.451617852847101631e+03,1.448072467654173806e+03,1.444284541228619219e+03,1.440284279475882840e+03,1.436101458118164601e+03,1.431765285110124751e+03,1.427304265865114303e+03,1.422746072236477858e+03,1.418117416196203976e+03,1.413443929141209310e+03,1.408750047735898534e+03,1.404058907168167934e+03,1.399392242654727625e+03,1.394770299980839582e+03,1.390211755799433149e+03,1.385733648345573329e+03,1.381351319144850095e+03,1.377078366209145997e+03,1.372926609120978583e+03,1.368906066309280277e+03,1.365024944715682523e+03,1.361289641942368689e+03,1.357704760861201976e+03,1.354273136550522167e+03,1.350995875311643886e+03,1.347872405403051062e+03,1.344900539017972733e+03,1.342076544921444111e+03,1.339395231057533920e+03,1.336850036337652000e+03,1.334433130727382832e+03,1.332135522664150812e+03,1.329947172761499132e+03,1.327857112689687028e+03,1.325853568067029528e+03,1.323924084153229387e+03,1.322055653105394640e+03,1.320234841540174784e+03,1.318447917141961170e+03,1.316680973067590912e+03,1.314920048922855585e+03,1.313151247124885685e+03,1.311360843517421017e+03,1.309535391172270693e+03,1.307661816389691921e+03,1.305727506001817346e+03,1.303720385186173189e+03,1.301628985109183759e+03,1.299442499841494509e+03,1.297150832116228230e+03,1.294744627636792075e+03,1.292215297780422134e+03,1.289555030686201235e+03,1.286756790859392595e+03,1.283814307566401794e+03,1.280722052434052330e+03,1.277475206801890181e+03,1.274069619504692582e+03,1.270501755882774887e+03,1.266768638928266455e+03,1.262867783574893338e+03,1.258797125225404443e+03,1.254554943683479678e+03,1.250139783714726036e+03,1.245550373503201399e+03,1.240785542295386449e+03,1.235844138531953149e+03,1.230724949759121955e+03,1.225426625585706233e+03,1.219947604909467373e+03,1.214286048577695055e+03,1.208439778572604382e+03,1.202406224723325067e+03,1.196182379843961598e+03,1.189764764082870215e+03,1.183149399143459277e+03,1.176331792903066116e+03,1.169306934815743489e+03,1.162069302338784382e+03,1.154612878473757064e+03,1.146931180362505302e+03,1.139017298729088679e+03,1.130863947812094011e+03,1.122463525289935205e+03,1.113808181566688063e+03,1.104889897659404369e+03,1.095700570811425678e+03,1.086232106851368599e+03,1.076476518225675363e+03,1.066426026554891223e+03,1.056073168501236751e+03,1.045410903688168446e+03,1.034432723382126824e+03,1.023132758632613672e+03,1.011505886569430913e+03,9.995478335748667860e+02,9.872552740836683824e+02,9.746259238139967920e+02,9.616586262975134787e+02
1.428785194242456555e+03,1.436053051308162367e+03,1.442562954991775541e+03,1.448327462286737955e+03,1.453361018462441052e+03,1.457679903237378539e+03,1.461302169254620594e+03,1.464247572790165123e+03,1.466537496676387946e+03,1.468194865480200860e+03,1.469244053037173217e+03,1.469710782508768034e+03,1.469622019198528960e+03,1.469005856434307816e+03,1.467891394896088741e+03,1.466308615841870051e+03,1.464288248756481153e+03,1.461861634019033545e+03,1.459060581252993643e+03,1.455917224087729437e+03,1.452463872120672022e+03,1.448732860924260876e+03,1.444756400990524071e+03,1.440566426547897890e+03,1.436194445218747433e+03,1.431671389511547204e+03,1.427027471158101889e+03,1.422292039313166015e+03,1.417493443630917682e+03,1.412658903219661852e+03,1.407814382452876544e+03,1.402984474580930282e+03,1.398192294044004939e+03,1.393459378332607002e+03,1.388805600178417762e+03,1.384249090785010139e+03,1.379806174726150857e+03,1.375491317049324380e+03,1.371317083024712474e+03,1.367294110875913702e+03,1.363431097719197169e+03,1.359734798824087420e+03,1.356210040190647987e+03,1.352859744319204765e+03,1.349684968927715317e+03,1.346684958251749549e+03,1.343857206443386985e+03,1.341197532469871248e+03,1.338700165801452840e+03,1.336357842072377480e+03,1.334161907800163817e+03,1.332102433158011308e+03,1.330168331713941370e+03,1.328347485979789553e+03,1.326626877553973372e+03,1.324992720595262199e+03,1.323430597331254148e+03,1.321925594285350144e+03,1.320462437900662508e+03,1.319025628248177327e+03,1.317599569530359986e+03,1.316168696129740965e+03,1.314717593004939999e+03,1.313231109303444327e+03,1.311694464140834270e+03,1.310093343589087453e+03,1.308413988021344494e+03,1.306643269075668968e+03,1.304768755625005724e+03,1.302778768272748266e+03,1.300662422032214181e+03,1.298409656991398833e+03,1.296011256910779821e+03,1.293458855849007932e+03,1.290744933057856088e+03,1.287862796531483809e+03,1.284806555734318863e+03,1.281571084164621652e+03,1.278151972535556752e+03,1.274545473470379420e+03,1.270748438711905465e+03,1.266758249937075107e+03,1.262572744344077819e+03,1.258190136241040591e+03,1.253608935910689070e+03,1.248827867054304988e+03,1.243845784129918229e+03,1.238661590894079609e+03,1.233274161433614836e+03,1.227682264933831675e+03,1.221884495373164555e+03,1.215879207262024465e+03,1.209664458456592001e+03,1.203237960977530747e+03,1.196597040650726967e+03,1.189738606263354313e+03,1.182659128795819697e+03,1.175354631150083833e+03,1.167820688649487238e+03,1.160052440436381630e+03,1.152044611743860514e+03,1.143791546868332262e+03,1.135287252523067991e+03,1.126525451110696849e+03,1.117499643317205027e+03,1.108203179302796116e+03,1.098629337647871807e+03,1.088771411106790765e+03,1.078622798129325702e+03,1.068177099031027637e+03,1.057428215629956185e+03,1.046370453119161766e+03,1.034998622912419478e+03,1.023308145185324747e+03,1.011295149834889457e+03,9.989565745982378075e+02,9.862902591042445692e+02,9.732950336805628240e+02,9.599708018015174957e+02
1.429999842520546736e+03,1.437393923967240653e+03,1.444010044005433429e+03,1.449860627071160252e+03,1.454960107130804090e+03,1.459324874525779705e+03,1.462973214349593263e+03,1.465925236282191918e+03,1.468202795863685424e+03,1.469829407251912016e+03,1.470830147575409910e+03,1.471231553064334776e+03,1.471061507215844813e+03,1.470349121326783916e+03,1.469124607803902109e+03,1.467419146739525331e+03,1.465264746317691106e+03,1.462694097690806075e+03,1.459740425039391994e+03,1.456437331595964224e+03,1.452818642477968524e+03,1.448918245232680874e+03,1.444769929048394943e+03,1.440407223630202225e+03,1.435863238774287538e+03,1.431170505701609272e+03,1.426360821228990744e+03,1.421465095863053193e+03,1.416513206899414627e+03,1.411533857595743939e+03,1.406554443462963718e+03,1.401600926683391663e+03,1.396697719618615793e+03,1.391867578313285321e+03,1.387131506833988396e+03,1.382508673205934201e+03,1.378016337624130074e+03,1.373669793521483143e+03,1.369482321974059005e+03,1.365465159814836170e+03,1.361627481712472900e+03,1.357976396352186839e+03,1.354516956732544941e+03,1.351252184466800827e+03,1.348183107850673650e+03,1.345308813332540922e+03,1.342626509897308097e+03,1.340131605753939311e+03,1.337817796599571921e+03,1.335677164622022701e+03,1.333700287298506964e+03,1.331876354952820293e+03,1.330193295947478418e+03,1.328637908312210811e+03,1.327195996547160803e+03,1.325852512288662410e+03,1.324591697488904174e+03,1.323397228738066588e+03,1.322252361349909052e+03,1.321140071838976610e+03,1.320043197440065342e+03,1.318944571358290659e+03,1.317827152490580829e+03,1.316674148426585361e+03,1.315469130617935207e+03,1.314196140698851877e+03,1.312839787047356367e+03,1.311385330793510093e+03,1.309818760607893182e+03,1.308126855738612903e+03,1.306297236906747457e+03,1.304318404816657221e+03,1.302179766187227187e+03,1.299871647361056375e+03,1.297385295698747314e+03,1.294712869113324587e+03,1.291847414242808100e+03,1.288782833896124430e+03,1.285513844536088300e+03,1.282035924682307723e+03,1.278345255224256789e+03,1.274438652729490741e+03,1.270313496912409164e+03,1.265967653494202978e+03,1.261399393733696115e+03,1.256607311940970931e+03,1.251590242300597765e+03,1.246347176328667729e+03,1.240877182267730859e+03,1.235179327686357055e+03,1.229252606496025464e+03,1.223095871527934378e+03,1.216707773727248878e+03,1.210086708923342712e+03,1.203230773023175288e+03,1.196137726352467553e+03,1.188804967737766674e+03,1.181229518783268531e+03,1.173408018651683733e+03,1.165336729510159785e+03,1.157011552652578303e+03,1.148428055160305121e+03,1.139581506816800584e+03,1.130466926849345100e+03,1.121079139935355443e+03,1.111412840783299544e+03,1.101462666480498001e+03,1.091223275693883579e+03,1.080689433716290978e+03,1.069856102271178543e+03,1.058718532923953035e+03,1.047272362898817846e+03,1.035513712066965809e+03,1.023439279855078212e+03,1.011046440822770023e+03,9.983333376733600062e+02,9.852989704939731155e+02,9.719432810677627685e+02,9.582672311621872723e+02
1.430669383626568560e+03,1.438170842600085280e+03,1.444876742635689197e+03,1.450799358753166416e+03,1.455953085175440037e+03,1.460354383162097065e+03,1.464021719675556142e+03,1.466975496796273774e+03,1.469237971865151621e+03,1.470833168398638236e+03,1.471786777893714770e+03,1.472126052715906553e+03,1.471879690342206004e+03,1.471077709311832677e+03,1.469751317319856753e+03,1.467932771971029069e+03,1.465655234792533065e+03,1.462952619183764227e+03,1.459859433057713204e+03,1.456410617000819457e+03,1.452641378845414692e+03,1.448587025610188675e+03,1.444282793818174923e+03,1.439763679248322660e+03,1.435064267214390838e+03,1.430218564493353369e+03,1.425259834044064291e+03,1.420220433664927668e+03,1.415131659736674692e+03,1.410023597182319008e+03,1.404924976751340637e+03,1.399863040698556233e+03,1.394863417880497764e+03,1.389950009233300534e+03,1.385144884526726628e+03,1.380468191209319684e+03,1.375938076070291800e+03,1.371570620345707766e+03,1.367379788790130078e+03,1.363377393121432078e+03,1.359573070127026540e+03,1.355974274594987492e+03,1.352586287105358679e+03,1.349412236585996880e+03,1.346453137405282632e+03,1.343707940642269932e+03,1.341173599044708908e+03,1.338845145058334765e+03,1.336715781188311439e+03,1.334776981837207359e+03,1.333018605654603107e+03,1.331429017333006868e+03,1.329995217694060557e+03,1.328702980829702028e+03,1.327536996995564550e+03,1.326481019900007141e+03,1.325518016991867853e+03,1.324630321324822035e+03,1.323799783565836151e+03,1.323007922720531724e+03,1.322236074169206859e+03,1.321465533643796334e+03,1.320677695828025662e+03,1.319854186329957201e+03,1.318976985857410455e+03,1.318028545521563728e+03,1.316991892301437019e+03,1.315850723820712119e+03,1.314589491717077408e+03,1.313193473021672162e+03,1.311648829110373072e+03,1.309942651938152949e+03,1.308062997420494639e+03,1.305998905980075506e+03,1.303740410430797738e+03,1.301278531522537833e+03,1.298605261617072756e+03,1.295713537106327067e+03,1.292597200316877434e+03,1.289250951767390006e+03,1.285670293757126274e+03,1.281851466362142901e+03,1.277791376999975910e+03,1.273487524792564727e+03,1.268937921009666979e+03,1.264141006910672331e+03,1.259095570320828074e+03,1.253800662278347545e+03,1.248255515071623677e+03,1.242459462951130035e+03,1.236411866748971534e+03,1.230112043571331697e+03,1.223559202645952837e+03,1.216752388309841535e+03,1.209690431012513045e+03,1.202371907089217984e+03,1.194795107928233620e+03,1.186958019018211189e+03,1.178858309217870783e+03,1.170493330442839579e+03,1.161860127815252781e+03,1.152955460172899620e+03,1.143775830688266751e+03,1.134317527205699434e+03,1.124576671769123323e+03,1.114549278684964747e+03,1.104231320346874554e+03,1.093618799942127453e+03,1.082707830065352255e+03,1.071494716184844037e+03,1.059976043841015553e+03,1.048148768406261524e+03,1.036010306201162848e+03,1.023558625743893003e+03,1.010792337907798583e+03,9.977107837764245915e+02,9.843141190151250157e+02,9.706033936234568955e+02,9.565806259917544594e+02
1.430780633502069122e+03,1.438369544529073664e+03,1.445147654256101077e+03,1.451127077173132648e+03,1.456322145352678262e+03,1.460749357554464723e+03,1.464427318531739274e+03,1.467376668444308280e+03,1.469620002349364540e+03,1.471181779812631021e+03,1.472088224758664182e+03,1.472367215759237070e+03,1.472048167042124533e+03,1.471161900587937225e+03,1.469740509769296750e+03,1.467817215073073612e+03,1.465426212532267527e+03,1.462602515577408212e+03,1.459381791097841187e+03,1.455800190579259151e+03,1.451894177254669785e+03,1.447700350270451963e+03,1.443255266926274089e+03,1.438595264096838036e+03,1.433756279983274226e+03,1.428773677372574411e+03,1.423682069603368291e+03,1.418515150445598465e+03,1.413305529099505975e+03,1.408084571505823078e+03,1.402882249133493815e+03,1.397726996374326291e+03,1.392645577624915859e+03,1.387662965075924603e+03,1.382802228157431500e+03,1.378084435506713135e+03,1.373528570232856509e+03,1.369151459150998107e+03,1.364967716549011811e+03,1.360989702932039108e+03,1.357227499066302016e+03,1.353688895514479555e+03,1.350379397721652367e+03,1.347302246575037543e+03,1.344458454223371973e+03,1.341846854804844270e+03,1.339464169596887814e+03,1.337305085968853064e+03,1.335362349390601139e+03,1.333626867628433729e+03,1.332087826145317649e+03,1.330732813616966951e+03,1.329547956380090454e+03,1.328518060545133721e+03,1.327626760434491644e+03,1.326856671949310112e+03,1.326189549424370398e+03,1.325606444502117938e+03,1.325087865543978523e+03,1.324613936100085766e+03,1.324164550977759518e+03,1.323719528484157308e+03,1.323258757469712918e+03,1.322762337865337713e+03,1.322210713487719659e+03,1.321584795982233118e+03,1.320866078881251724e+03,1.320036740875560099e+03,1.319079737526985809e+03,1.317978880789632058e+03,1.316718905853617343e+03,1.315285524977160776e+03,1.313665468128602924e+03,1.311846510417122545e+03,1.309817486448049067e+03,1.307568291893430114e+03,1.305089872719122923e+03,1.302374202654006922e+03,1.299414249623419892e+03,1.296203931995376024e+03,1.292738065603400401e+03,1.289012302611878795e+03,1.285023063377840117e+03,1.280767462535399773e+03,1.276243230585326728e+03,1.271448632311006577e+03,1.266382383363548570e+03,1.261043566362274305e+03,1.255431547842481905e+03,1.249545897350562882e+03,1.243386309937405485e+03,1.236952533235791179e+03,1.230244300226531095e+03,1.223261268703135556e+03,1.216002968336836375e+03,1.208468756124491847e+03,1.200657780872966441e+03,1.192568957236818051e+03,1.184200949683483714e+03,1.175552166613522559e+03,1.166620764715079531e+03,1.157404663483439208e+03,1.147901569690485303e+03,1.138109011447010971e+03,1.128024381365092040e+03,1.117644988199848967e+03,1.106968116231659678e+03,1.095991091542762206e+03,1.084711354247405097e+03,1.073126535653664632e+03,1.061234539268460139e+03,1.049033624506081878e+03,1.036522491925101122e+03,1.023700368799147554e+03,1.010567093823854066e+03,9.971231997749614493e+02,9.833699929608727643e+02,9.693096283561799282e+02,9.549451793600412657e+02
1.430324146485741721e+03,1.437979604422178909e+03,1.444811301545682227e+03,1.450831186643649289e+03,1.456053513541450229e+03,1.460494791722846458e+03,1.464173726587740703e+03,1.467111149238642838e+03,1.469329935756720488e+03,1.470854916003662765e+03,1.471712772065772697e+03,1.471931926540808035e+03,1.471542420955563784e+03,1.470575784691615581e+03,1.469064894887309038e+03,1.467043827874849740e+03,1.464547702800873822e+03,1.461612518166448808e+03,1.458274982106692278e+03,1.454572337309759632e+03,1.450542181549560837e+03,1.446222284874062325e+03,1.441650404551491647e+03,1.436864098928521571e+03,1.431900541397089683e+03,1.426796335699101292e+03,1.421587333820044933e+03,1.416308457733332034e+03,1.410993526255971346e+03,1.405675088263363477e+03,1.400384263485717383e+03,1.395150592071276833e+03,1.390001894052015587e+03,1.384964139786005262e+03,1.380061332377682220e+03,1.375315402993032876e+03,1.370746119892323350e+03,1.366371011898474535e+03,1.362205306906181022e+03,1.358261885915774656e+03,1.354551252948056117e+03,1.351081521062921183e+03,1.347858414566975171e+03,1.344885287354755974e+03,1.342163157186063927e+03,1.339690755559913896e+03,1.337464592704951883e+03,1.335479037068703974e+03,1.333726408555037551e+03,1.332197084632350197e+03,1.330879618315621201e+03,1.329760866915270071e+03,1.328826130345661340e+03,1.328059297697811871e+03,1.327443000705264694e+03,1.326958772670253211e+03,1.326587211370187788e+03,1.326308144432793597e+03,1.326100795652401757e+03,1.325943950720581597e+03,1.325816120861283935e+03,1.325695702894370015e+03,1.325561134301143966e+03,1.325391041931394966e+03,1.325164383072255532e+03,1.324860577694614904e+03,1.324459630801562753e+03,1.323942243924079548e+03,1.323289914941031839e+03,1.322485025541287541e+03,1.321510915794302718e+03,1.320351945449788218e+03,1.318993541745190896e+03,1.317422233659865014e+03,1.315625672714776329e+03,1.313592640574640427e+03,1.311313043863187886e+03,1.308777896750162654e+03,1.305979292008547645e+03,1.302910361370632927e+03,1.299565226130347128e+03,1.295938939044993276e+03,1.292027418681057725e+03,1.287827377424627457e+03,1.283336244436583911e+03,1.278552084874933371e+03,1.273473516731320160e+03,1.268099626635328832e+03,1.262429885968898816e+03,1.256464068604041586e+03,1.250202171530677560e+03,1.243644339578561130e+03,1.236790795358710966e+03,1.229641775456876303e+03,1.222197473805567597e+03,1.214457993043691658e+03,1.206423304545459359e+03,1.198093217664920530e+03,1.189467358601038768e+03,1.180545159142704733e+03,1.171325855405534867e+03,1.161808496524747170e+03,1.151991963122917468e+03,1.141874995229894012e+03,1.131456229196657659e+03,1.120734243017090648e+03,1.109707609353241878e+03,1.098374955452249196e+03,1.086735029047958960e+03,1.074786769258570075e+03,1.062529381424378926e+03,1.049962414777569165e+03,1.037085841799487071e+03,1.023900138100325535e+03,1.010406361651559337e+03,9.966062302127343173e+02,9.825021958208844808e+02,9.680975152523316183e+02,9.533963154221049763e+02
1.429294182948663774e+03,1.436994405806794248e+03,1.443860102713354991e+03,1.449903057673020840e+03,1.455137436706212839e+03,1.459579740189612266e+03,1.463248744334145158e+03,1.466165431675724221e+03,1.468352910526829191e+03,1.469836323415709558e+03,1.470642744623618455e+03,1.470801067018282538e+03,1.470341878472848293e+03,1.469297328252917850e+03,1.467700983848622627e+03,1.465587678823362012e+03,1.462993352344193454e+03,1.459954881150292522e+03,1.456509904803674544e+03,1.452696645149922233e+03,1.448553720994400919e+03,1.444119959070640789e+03,1.439434202440974786e+03,1.434535117524308816e+03,1.429461000991197579e+03,1.424249587801324424e+03,1.418937861682472203e+03,1.413561869362461266e+03,1.408156539865924742e+03,1.402755510175806421e+03,1.397390958534926995e+03,1.392093446625767456e+03,1.386891771816964138e+03,1.381812830602792019e+03,1.376881494287999431e+03,1.372120497884525548e+03,1.367550343090345450e+03,1.363189216113876455e+03,1.359052920991559404e+03,1.355154828922152092e+03,1.351505844009860766e+03,1.348114385671457285e+03,1.344986387820760456e+03,1.342125314798910040e+03,1.339532193872389371e+03,1.337205663973878472e+03,1.335142040215742327e+03,1.333335393563367461e+03,1.331777644917821135e+03,1.330458672725372935e+03,1.329366433107285502e+03,1.328487091388170711e+03,1.327805163796586157e+03,1.327303668018775852e+03,1.326964281206587884e+03,1.326767503974840338e+03,1.326692828872661494e+03,1.326718911778164284e+03,1.326823744647136664e+03,1.326984828044321375e+03,1.327179341900708323e+03,1.327384312972065345e+03,1.327576777522270049e+03,1.327733937819826224e+03,1.327833311116207369e+03,1.327852869869863980e+03,1.327771172088637741e+03,1.327567480784799500e+03,1.327221871669541542e+03,1.326715328356027157e+03,1.326029824490158489e+03,1.325148392384523049e+03,1.324055177891335006e+03,1.322735481412836634e+03,1.321175785110303195e+03,1.319363766533834223e+03,1.317288299051926970e+03,1.314939439611043781e+03,1.312308404498520531e+03,1.309387533915811446e+03,1.306170246291153035e+03,1.302650983370134327e+03,1.298825147217434505e+03,1.294689030342500928e+03,1.290239740224774323e+03,1.285475119559717768e+03,1.280393663574703396e+03,1.274994435773566920e+03,1.269276983460296151e+03,1.263241254366056637e+03,1.256887515660117288e+03,1.250216276564957070e+03,1.243228215719641867e+03,1.235924114344978989e+03,1.228304796159978650e+03,1.220371074883611755e+03,1.212123710030144593e+03,1.203563371572671258e+03,1.194690613909312788e+03,1.185505859422311687e+03,1.176009391773721063e+03,1.166201358934685686e+03,1.156081785800522084e+03,1.145650596102852205e+03,1.134907643194828097e+03,1.123852749157926610e+03,1.112485751560383278e+03,1.100806557089818398e+03,1.088815201187106140e+03,1.076511912726412675e+03,1.063897182718414115e+03,1.050971835960736371e+03,1.037737104522271920e+03,1.024194701926293874e+03,1.010346896891510823e+03,9.961965854999840531e+02,9.817473606859465463e+02,9.670035779793172424e+02,9.519704164913376871e+02
1.427688639167069823e+03,1.435411074159352665e+03,1.442290308785724619e+03,1.448337969386939221e+03,1.453568131337539853e+03,1.457997273268709705e+03,1.461644219990108240e+03,1.464530073968115630e+03,1.466678135293422883e+03,1.468113810152517090e+03,1.468864507904310813e+03,1.468959526954196008e+03,1.468429929712100829e+03,1.467308407018057551e+03,1.465629132516538675e+03,1.463427607559187891e+03,1.460740497312509660e+03,1.457605458842151620e+03,1.454060962036874798e+03,1.450146104322323481e+03,1.445900420196069717e+03,1.441363686689891210e+03,1.436575725931898660e+03,1.431576206039065028e+03,1.426404441618735973e+03,1.421099195195329912e+03,1.415698480904712824e+03,1.410239371813201160e+03,1.404757812220196229e+03,1.399288436292938286e+03,1.393864394358110985e+03,1.388517188138741176e+03,1.383276516175036477e+03,1.378170130605669328e+03,1.373223706411211879e+03,1.368460724134747807e+03,1.363902366996743694e+03,1.359567433212702554e+03,1.355472264203907343e+03,1.351630689264824014e+03,1.348053987116409417e+03,1.344750864634026357e+03,1.341727452893342615e+03,1.338987320528710598e+03,1.336531504247721159e+03,1.334358556194540597e+03,1.332464607704594982e+03,1.330843448846172805e+03,1.329486623001733051e+03,1.328383535605316183e+03,1.327521576023228135e+03,1.326886251445761673e+03,1.326461331548156068e+03,1.326229002581977056e+03,1.326170029473996010e+03,1.326263924439778066e+03,1.326489120564695213e+03,1.326823148766535724e+03,1.327242816531942026e+03,1.327724386814053560e+03,1.328243755491175762e+03,1.328776625815927446e+03,1.329298678331143947e+03,1.329785734792207450e+03,1.330213914714968041e+03,1.330559783263153804e+03,1.330800489297893591e+03,1.330913892533891385e+03,1.330878678880015514e+03,1.330674463185357354e+03,1.330281878763351870e+03,1.329682653224417663e+03,1.328859670309995863e+03,1.327797017585734466e+03,1.326480020016757408e+03,1.324895259611615529e+03,1.323030581481341869e+03,1.320875086814114866e+03,1.318419113412481465e+03,1.315654204576827397e+03,1.312573067244361710e+03,1.309169520405441290e+03,1.305438434917377208e+03,1.301375665918617642e+03,1.296977979112422190e+03,1.292242972238046377e+03,1.287168993078434141e+03,1.281755055366332499e+03,1.276000753945374527e+03,1.269906180519307327e+03,1.263471841281711932e+03,1.256698577660838964e+03,1.249587491340554379e+03,1.242139874630094255e+03,1.234357147153545384e+03,1.226240799716412766e+03,1.217792346082859694e+03,1.209013283265115888e+03,1.199905060788006722e+03,1.190469059248623580e+03,1.180706578345788103e+03,1.170618834408304792e+03,1.160206967306995921e+03,1.149472056495233119e+03,1.138415145787978872e+03,1.127037276362040984e+03,1.115339527342056272e+03,1.103323063229090621e+03,1.090989187333103018e+03,1.078339400287987473e+03,1.065375462659423420e+03,1.052099460602139288e+03,1.038513873484852184e+03,1.024621642378401475e+03,1.010426238295563508e+03,9.959317290794776909e+02,9.811428438611386582e+02,9.660650340445267830e+02,9.507045298297277895e+02
1.425508941646152607e+03,1.433230373820076920e+03,1.440101904233760706e+03,1.446135014940849487e+03,1.451343694671112189e+03,1.455744395053861581e+03,1.459355975160034404e+03,1.462199634201016124e+03,1.464298832299971309e+03,1.465679199335725798e+03,1.466368431948435273e+03,1.466396178890190640e+03,1.465793915001102960e+03,1.464594804191246567e+03,1.462833551910057622e+03,1.460546247686317201e+03,1.457770198422345857e+03,1.454543753224429338e+03,1.450906120646602631e+03,1.446897179315317999e+03,1.442557282987353801e+03,1.437927061171249079e+03,1.433047216512411524e+03,1.427958320203210633e+03,1.422700606730266372e+03,1.417313769311696888e+03,1.411836757405814751e+03,1.406307577689505933e+03,1.400763099908671165e+03,1.395238868994083305e+03,1.389768924813829699e+03,1.384385630897896590e+03,1.379119513421478814e+03,1.373999111671459332e+03,1.369050841145553704e+03,1.364298870346280637e+03,1.359765012232871641e+03,1.355468631184240394e+03,1.351426566206038387e+03,1.347653070985757495e+03,1.344159771262951153e+03,1.340955639838105071e+03,1.338046989394905950e+03,1.335437483158373880e+03,1.333128163256498510e+03,1.331117496497821321e+03,1.329401437123197866e+03,1.327973505938351309e+03,1.326824885086730774e+03,1.325944527580897557e+03,1.325319280577238715e+03,1.324934021254257004e+03,1.324771804041188261e+03,1.324814017841822761e+03,1.325040551810295710e+03,1.325429968161612578e+03,1.325959680441373393e+03,1.326606135637058969e+03,1.327344998487985549e+03,1.328151336343332787e+03,1.328999802927392693e+03,1.329864819398580494e+03,1.330720751133791509e+03,1.331542078731434231e+03,1.332303561805037361e+03,1.332980394233137531e+03,1.333548349639766229e+03,1.333983916001689977e+03,1.334264418412174564e+03,1.334368129175266859e+03,1.334274364557044692e+03,1.333963567679722701e+03,1.333417377208647167e+03,1.332618681648938491e+03,1.331551659236243268e+03,1.330201803571915661e+03,1.328555935315658189e+03,1.326602200405442318e+03,1.324330055424031798e+03,1.321730240871198248e+03,1.318794743229506821e+03,1.315516746827348697e+03,1.311890576604415628e+03,1.307911632970943629e+03,1.303576320021433503e+03,1.298881968415726760e+03,1.293826754274521818e+03,1.288409615452346998e+03,1.282630166548689431e+03,1.276488613997599714e+03,1.269985672537947721e+03,1.263122484311568542e+03,1.255900541765399794e+03,1.248321615447864815e+03,1.240387687690222720e+03,1.232100893052153424e+03,1.223463466289056441e+03,1.214477698468215067e+03,1.205145901724111354e+03,1.195470383001637401e+03,1.185453426991965671e+03,1.175097288321235055e+03,1.164404192909215453e+03,1.153376348275579403e+03,1.142015962437322059e+03,1.130325270914023577e+03,1.118306571239659434e+03,1.105962264272152879e+03,1.093294901496107968e+03,1.080307237431332624e+03,1.067002286190868517e+03,1.053383381177900219e+03,1.039454236871840976e+03,1.025219011630117166e+03,1.010682370423984707e+03,9.958495464338384409e+02,9.807264004515060378e+02,9.653194770734834265e+02,9.496360567190459960e+02
1.422759908471157132e+03,1.430456571346638611e+03,1.437298473578824087e+03,1.443296972579646990e+03,1.448465981347528668e+03,1.452821926764182308e+03,1.456383695884393092e+03,1.459172570036145544e+03,1.461212146628422033e+03,1.462528248649924080e+03,1.463148821933822546e+03,1.463103820359737938e+03,1.462425079264352689e+03,1.461146177434632364e+03,1.459302288161782599e+03,1.456930019938782152e+03,1.454067247487882696e+03,1.450752933906354201e+03,1.447026944816938794e+03,1.442929855503532508e+03,1.438502752100672751e+03,1.433787027986688599e+03,1.428824176603710384e+03,1.423655581991815325e+03,1.418322308378915750e+03,1.412864890211168131e+03,1.407323124040287439e+03,1.401735863703356017e+03,1.396140820237096932e+03,1.390574367961457938e+03,1.385071358146885586e+03,1.379664941645138470e+03,1.374386401815716226e+03,1.369264999018094386e+03,1.364327827865334257e+03,1.359599688346901075e+03,1.355102971828924410e+03,1.350857562828927485e+03,1.346880757340539276e+03,1.343187198352775113e+03,1.339788829069171015e+03,1.336694864186031282e+03,1.333911779437241194e+03,1.331443319457435337e+03,1.329290523857036987e+03,1.327451771243605435e+03,1.325922840765601677e+03,1.324696990599025639e+03,1.323765052645755077e+03,1.323115542566802105e+03,1.322734784135730933e+03,1.322607046768546070e+03,1.322714694968261256e+03,1.323038348316323436e+03,1.323557050550498616e+03,1.324248446190996447e+03,1.325088963114244507e+03,1.326053999428072530e+03,1.327118112973488905e+03,1.328255211767376522e+03,1.329438743707443336e+03,1.330641883885831703e+03,1.331837717900624057e+03,1.332999419614715180e+03,1.334100421888567780e+03,1.335114578906484439e+03,1.336016318823820939e+03,1.336780785584415298e+03,1.337383968891222594e+03,1.337802821457855089e+03,1.338015362822170346e+03,1.338000769163582845e+03,1.337739448731436823e+03,1.337213102660347658e+03,1.336404771118056942e+03,1.335298864899540831e+03,1.333881182746313016e+03,1.332138914829216446e+03,1.330060632985401980e+03,1.327636268442871142e+03,1.324857077897758927e+03,1.321715598928445161e+03,1.318205595835325312e+03,1.314321997084294480e+03,1.310060825604641877e+03,1.305419123247411335e+03,1.300394870747535151e+03,1.294986904552188889e+03,1.289194831878451623e+03,1.283018945345870861e+03,1.276460138494315743e+03,1.269519823445211614e+03,1.262199851895743905e+03,1.254502440552261078e+03,1.246430102011871440e+03,1.237985581992024436e+03,1.229171803688072941e+03,1.219991819910428148e+03,1.210448773517704694e+03,1.200545866522414372e+03,1.190286338103040634e+03,1.179673451613070256e+03,1.168710490535577492e+03,1.157400763193307284e+03,1.145747615890876887e+03,1.133754454039352368e+03,1.121424770695842653e+03,1.108762181843472263e+03,1.095770467641213827e+03,1.082453618790174232e+03,1.068815887093572428e+03,1.054861839232787361e+03,1.040596412742015900e+03,1.026024973139420581e+03,1.011153371163316024e+03,9.959879990678457489e+02,9.805358449531527185e+02,9.648045441399050333e+02,9.488024266463150980e+02
1.419449580577219194e+03,1.427097268236429954e+03,1.433887036933718036e+03,1.439830145314398806e+03,1.444940448485229581e+03,1.449234358411101084e+03,1.452730792029511804e+03,1.455451106878970677e+03,1.457419024118752986e+03,1.458660538905256089e+03,1.459203818183723797e+03,1.459079086052555795e+03,1.458318496959743698e+03,1.456955997096124975e+03,1.455027174456971807e+03,1.452569098150941727e+03,1.449620147641973745e+03,1.446219832714657741e+03,1.442408605055054977e+03,1.438227662436177752e+03,1.433718746588764134e+03,1.428923935922574856e+03,1.423885434339998028e+03,1.418645357451247264e+03,1.413245517557670610e+03,1.407727208816104849e+03,1.402130994031502041e+03,1.396496494547129942e+03,1.390862184710160591e+03,1.385265192385861837e+03,1.379741106974674040e+03,1.374323796353827220e+03,1.369045234118244480e+03,1.363935338434736650e+03,1.359021823749138093e+03,1.354330066498538827e+03,1.349882985880617298e+03,1.345700940620431311e+03,1.341801642552029762e+03,1.338200087700132144e+03,1.334908505405541973e+03,1.331936325889942964e+03,1.329290166501049043e+03,1.326973836720506824e+03,1.324988361855400399e+03,1.323332025171561554e+03,1.322000428064716061e+03,1.320986567705957896e+03,1.320280931442149267e+03,1.319871607082054425e+03,1.319744408056667680e+03,1.319883012308923071e+03,1.320269113645446623e+03,1.320882584172767565e+03,1.321701646343612310e+03,1.322703053056923864e+03,1.323862274189138361e+03,1.325153687884759165e+03,1.326550774902440253e+03,1.328026314298536590e+03,1.329552578734465669e+03,1.331101527716539977e+03,1.332644997117673256e+03,1.334154883388668623e+03,1.335603320942427445e+03,1.336962851286226396e+03,1.338206582584518173e+03,1.339308338455812873e+03,1.340242794941197417e+03,1.340985604726867223e+03,1.341513507857197737e+03,1.341804428336438150e+03,1.341837556183962079e+03,1.341593414678253566e+03,1.341053912696163025e+03,1.340202382224370240e+03,1.339023601287310612e+03,1.337503802697864330e+03,1.335630669191950574e+03,1.333393315653794389e+03,1.330782259273258433e+03,1.327789378598541816e+03,1.324407862555362726e+03,1.320632150596085012e+03,1.316457865217954122e+03,1.311881738148098748e+03,1.306901531533418847e+03,1.301515955495449816e+03,1.295724583414156086e+03,1.289527766289937745e+03,1.282926547500777133e+03,1.275922579221932665e+03,1.268518041709716726e+03,1.260715566570049759e+03,1.252518165037651897e+03,1.243929162184787856e+03,1.234952137860823086e+03,1.225590875037374190e+03,1.215849316100549686e+03,1.205731527493486510e+03,1.195241672971234266e+03,1.184383995588083735e+03,1.173162808396634773e+03,1.161582493700207806e+03,1.149647510567749578e+03,1.137362410194580434e+03,1.124731858575239357e+03,1.111760665847609971e+03,1.098453821571773688e+03,1.084816535123998165e+03,1.070854280316643099e+03,1.056572843299440819e+03,1.041978372757077295e+03,1.027077431392509425e+03,1.011877047675100926e+03,9.963847668372934550e+02,9.806087001227707560e+02,9.645575713223284993e+02,9.482407596801954242e+02
1.415589026094068686e+03,1.423163206211233046e+03,1.429877857696847741e+03,1.435744172445360164e+03,1.440775972394404334e+03,1.444989672000809151e+03,1.448404228205534309e+03,1.451041077662165435e+03,1.452924061085718449e+03,1.454079334667854710e+03,1.454535268599595611e+03,1.454322332842861215e+03,1.453472970396535175e+03,1.452021458409931029e+03,1.450003757606034924e+03,1.447457350586605799e+03,1.444421069700933231e+03,1.440934915267544284e+03,1.437039865042807833e+03,1.432777675930719624e+03,1.428190679022737868e+03,1.423321569144415207e+03,1.418213190165368360e+03,1.412908317399887210e+03,1.407449438485859901e+03,1.401878534179286817e+03,1.396236860538808514e+03,1.390564733999537111e+03,1.384901320846786575e+03,1.379284432597720752e+03,1.373750328782438601e+03,1.368333528584961186e+03,1.363066632759236654e+03,1.357980157175670456e+03,1.353102379280048126e+03,1.348459198659670164e+03,1.344074012811264083e+03,1.339967609093222791e+03,1.336158073720979473e+03,1.332660718530736403e+03,1.329488026093987628e+03,1.326649613614766849e+03,1.324152215884977295e+03,1.321999687411566129e+03,1.320193023664911607e+03,1.318730401231762698e+03,1.317607236490425066e+03,1.316816262262454757e+03,1.316347621735383655e+03,1.316188978797124037e+03,1.316325643776048992e+03,1.316740713443311733e+03,1.317415224007217148e+03,1.318328315714917608e+03,1.319457407575745719e+03,1.320778380634597625e+03,1.322265768153561112e+03,1.323892951007037254e+03,1.325632356560064409e+03,1.327455659282216857e+03,1.329333981350766635e+03,1.331238091516567465e+03,1.333138600544369865e+03,1.335006151595756819e+03,1.336811603996706253e+03,1.338526208922386786e+03,1.340121775638100871e+03,1.341570827055866403e+03,1.342846743499844706e+03,1.343923893718759018e+03,1.344777752338109167e+03,1.345385003107246121e+03,1.345723627464367837e+03,1.345772978114093576e+03,1.345513837485237218e+03,1.344928461108815782e+03,1.344000606125596505e+03,1.342715545296956179e+03,1.341060067050197176e+03,1.339022462237586751e+03,1.336592498425924077e+03,1.333761382658169396e+03,1.330521713739424058e+03,1.326867425194891894e+03,1.322793720126259814e+03,1.318296999254437651e+03,1.313374783480034694e+03,1.308025632318115413e+03,1.302249059570441204e+03,1.296045447586747741e+03,1.289415961437098304e+03,1.282362464270514010e+03,1.274887435072022754e+03,1.266993889951775373e+03,1.258685308007707818e+03,1.249965562698397207e+03,1.240838859547402080e+03,1.231309680875903268e+03,1.221382738129049130e+03,1.211062932224842143e+03,1.200355322214898706e+03,1.189265102405788639e+03,1.177797587950141633e+03,1.165958208780137511e+03,1.153752511624333465e+03,1.141186169723835292e+03,1.128264999747162165e+03,1.114994985296480081e+03,1.101382306302329198e+03,1.087433373520871328e+03,1.073154867277864241e+03,1.058553779547856493e+03,1.043637458415969377e+03,1.028413653943323425e+03,1.012890564445918244e+03,9.970768822001922445e+02,9.809818376064242784e+02,9.646152408729003582e+02,9.479875203286155738e+02
1.411192121133830142e+03,1.418668048468596908e+03,1.425284225825326303e+03,1.431051816364693650e+03,1.435984640359180048e+03,1.440099139680436792e+03,1.443414329588855480e+03,1.445951737578116308e+03,1.447735329110723342e+03,1.448791420170741276e+03,1.449148576656204114e+03,1.448837500735320418e+03,1.447890904396732594e+03,1.446343370533086272e+03,1.444231202008793389e+03,1.441592259274990738e+03,1.438465787206745745e+03,1.434892231947891332e+03,1.430913048656391766e+03,1.426570501146251445e+03,1.421907454519873909e+03,1.416967161975657064e+03,1.411793047058680031e+03,1.406428482696247102e+03,1.400916568423713898e+03,1.395299907258546909e+03,1.389620383721019607e+03,1.383918944527416670e+03,1.378235383495841916e+03,1.372608132204584763e+03,1.367074057928732373e+03,1.361668270351725596e+03,1.356423938504862235e+03,1.351372119329483212e+03,1.346541599183997278e+03,1.341958749531439935e+03,1.337647397943357873e+03,1.333628715443482179e+03,1.329921121090635779e+03,1.326540204565521890e+03,1.323498667382149506e+03,1.320806283192360297e+03,1.318469877493170088e+03,1.316493326882849260e+03,1.314877577844233429e+03,1.313620684864921486e+03,1.312717867534873221e+03,1.312161586095020766e+03,1.311941634747008493e+03,1.312045251876293605e+03,1.312457246190305113e+03,1.313160137631675525e+03,1.314134311795727399e+03,1.315358186462737194e+03,1.316808388750374206e+03,1.318459941301853178e+03,1.320286455851295159e+03,1.322260332451056911e+03,1.324352962606716574e+03,1.326534934544907173e+03,1.328776238837371011e+03,1.331046472621653947e+03,1.333315040694724075e+03,1.335551351810078813e+03,1.337725008580998747e+03,1.339805989481755432e+03,1.341764821543736161e+03,1.343572742463401937e+03,1.345201850972128113e+03,1.346625244463092486e+03,1.347817143025083396e+03,1.348752999196142127e+03,1.349409592918779708e+03,1.349765111351260202e+03,1.349799213364025036e+03,1.349493078724274710e+03,1.348829442143133065e+03,1.347792612526357971e+03,1.346368477929247092e+03,1.344544496867111548e+03,1.342309676772801822e+03,1.339654540520264163e+03,1.336571082046743413e+03,1.333052712204433647e+03,1.329094196054213171e+03,1.324691582878531563e+03,1.319842130236968160e+03,1.314544223416095519e+03,1.308797291634912426e+03,1.302601722358309644e+03,1.295958775044404774e+03,1.288870495607455041e+03,1.281339632817662505e+03,1.273369557783341406e+03,1.264964187571081311e+03,1.256127913917189517e+03,1.246865537870432490e+03,1.237182211083810444e+03,1.227083384343539137e+03,1.216574763788731616e+03,1.205662275137307461e+03,1.194352036094624737e+03,1.182650336983030002e+03,1.170563629495159830e+03,1.158098523343146553e+03,1.145261790451666911e+03,1.132060376226838571e+03,1.118501417326622686e+03,1.104592265263153422e+03,1.090340515084368008e+03,1.075754038312320517e+03,1.060841019259563836e+03,1.045609993803319185e+03,1.030069889670133989e+03,1.014230067271569283e+03,9.981003601338347835e+02,9.816911139808753433e+02,9.650132235608257361e+02,9.480781663488946833e+02
1.406275310548267498e+03,1.413628140459682982e+03,1.420122220265040824e+03,1.425768728220192770e+03,1.430581521058124736e+03,1.434577100372776385e+03,1.437774566155494313e+03,1.440195557215702365e+03,1.441864178301045285e+03,1.442806913823163313e+03,1.443052528192443333e+03,1.442631952868041253e+03,1.441578160336624933e+03,1.439926025344429945e+03,1.437712173820144017e+03,1.434974820040764598e+03,1.431753592706632617e+03,1.428089350704786057e+03,1.424023989449771079e+03,1.419600238797258726e+03,1.414861453626283719e+03,1.409851398280166450e+03,1.404614026142079865e+03,1.399193255698485473e+03,1.393632744510370003e+03,1.387975662567858080e+03,1.382264466547288293e+03,1.376540676520334046e+03,1.370844656681560082e+03,1.365215401663532475e+03,1.359690329996501077e+03,1.354305086243027745e+03,1.349093353295900670e+03,1.344086676271161878e+03,1.339314299356586389e+03,1.334803016890341951e+03,1.330577039845287572e+03,1.326657878781998306e+03,1.323064244209360368e+03,1.319811965156170572e+03,1.316913926612086698e+03,1.314380026342679685e+03,1.312217151422626102e+03,1.310429174665228174e+03,1.309016970956421801e+03,1.307978453329816830e+03,1.307308628447075762e+03,1.306999670977651249e+03,1.307041016204845846e+03,1.307419470023589383e+03,1.308119335340840280e+03,1.309122553743938397e+03,1.310408861167297118e+03,1.311955956165196994e+03,1.313739679289279593e+03,1.315734201975540373e+03,1.317912223267721401e+03,1.320245172643589513e+03,1.322703417168066153e+03,1.325256471173251612e+03,1.327873206660605319e+03,1.330522062634749545e+03,1.333171251611751359e+03,1.335788961596771514e+03,1.338343551896189410e+03,1.340803741216942853e+03,1.343138786609717499e+03,1.345318651931683917e+03,1.347314164637183694e+03,1.349097159849498439e+03,1.350640610821860491e+03,1.351918745059230332e+03,1.352907145541965974e+03,1.353582836666364074e+03,1.353924354692871930e+03,1.353911802668340670e+03,1.353526889961865436e+03,1.352752956722353929e+03,1.351574983727812651e+03,1.349979588249471817e+03,1.347955006696478222e+03,1.345491064937039710e+03,1.342579137308229292e+03,1.339212095427736585e+03,1.335384248005481368e+03,1.331091272920354413e+03,1.326330142876747459e+03,1.321099045986546798e+03,1.315397302634752123e+03,1.309225279981012136e+03,1.302584305425437378e+03,1.295476580325787154e+03,1.287905095195292688e+03,1.279873547537141349e+03,1.271386263384291851e+03,1.262448123513278688e+03,1.253064495189668605e+03,1.243241170182617225e+03,1.232984309658452730e+03,1.222300396430317960e+03,1.211196194904667664e+03,1.199678718927878435e+03,1.187755207599366031e+03,1.175433108983403827e+03,1.162720071522196804e+03,1.149623942829494354e+03,1.136152775428633959e+03,1.122314838893237493e+03,1.108118637753733765e+03,1.093572934450001412e+03,1.078686776540421761e+03,1.063469527321291253e+03,1.047930898968513475e+03,1.032080987285763968e+03,1.015930307130406845e+03,9.994898275896899804e+02,9.827710059952771644e+02,9.657858198930395019e+02,9.485467961267626151e+02
1.400857352285544721e+03,1.408062253853836864e+03,1.414410454212007835e+03,1.419913196112687729e+03,1.424584417279218087e+03,1.428440718524418571e+03,1.431501318904941854e+03,1.433787997622394187e+03,1.435325022466327482e+03,1.436139064685425637e+03,1.436259100271224270e+03,1.435716297742323377e+03,1.434543892625498302e+03,1.432777048942466081e+03,1.430452708125659228e+03,1.427609425902791600e+03,1.424287197806005452e+03,1.420527274076701360e+03,1.416371964849552342e+03,1.411864436607896550e+03,1.407048501006233209e+03,1.401968397252263458e+03,1.396668569330307037e+03,1.391193439427745489e+03,1.385587178996307784e+03,1.379893478938526414e+03,1.374155320456337222e+03,1.368414748132142449e+03,1.362712646832390419e+03,1.357088524029103382e+03,1.351580299125122565e+03,1.346224101344450219e+03,1.341054077709135299e+03,1.336102212569160429e+03,1.331398160081825381e+03,1.326969090952549323e+03,1.322839554650287027e+03,1.319031358198960788e+03,1.315563462521707834e+03,1.312451897179145135e+03,1.309709694196744977e+03,1.307346841521659826e+03,1.305370256487135748e+03,1.303783779494610599e+03,1.302588187951600730e+03,1.301781230328923129e+03,1.301357680026001844e+03,1.301309408559254280e+03,1.301625477418461514e+03,1.302292247770552194e+03,1.303293507032304888e+03,1.304610611183915807e+03,1.306222641556633334e+03,1.308106574701045247e+03,1.310237463829571652e+03,1.312588630229003456e+03,1.315131862957382737e+03,1.317837625075277856e+03,1.320675264615613060e+03,1.323613228469016121e+03,1.326619277353696361e+03,1.329660700050351579e+03,1.332704525113341333e+03,1.335717728319225444e+03,1.338667434181970066e+03,1.341521109950143682e+03,1.344246750604008867e+03,1.346813053488471041e+03,1.349189581349934315e+03,1.351346912689502005e+03,1.353256778500015116e+03,1.354892184618026704e+03,1.356227519092125476e+03,1.357238644143739066e+03,1.357902972473492355e+03,1.358199527843301667e+03,1.358108990039152559e+03,1.357613724489992137e+03,1.356697796982129603e+03,1.355346974063898642e+03,1.353548709880283241e+03,1.351292120309996108e+03,1.348567945396349614e+03,1.345368501167084787e+03,1.341687622025730434e+03,1.337520594967252919e+03,1.332864086922911838e+03,1.327716066573187391e+03,1.322075721982900632e+03,1.315943375409602368e+03,1.309320396615170239e+03,1.302209115971893425e+03,1.294612738599283375e+03,1.286535260696986143e+03,1.277981389154440876e+03,1.268956465420164250e+03,1.259466394504858272e+03,1.249517579874425337e+03,1.239116864863449109e+03,1.228271481108724856e+03,1.216989004367835832e+03,1.205277317951852183e+03,1.193144583865809636e+03,1.180599221617635976e+03,1.167649894527682818e+03,1.154305503248641799e+03,1.140575186091053183e+03,1.126468325644401148e+03,1.111994561089235731e+03,1.097163805513006764e+03,1.081986267472314694e+03,1.066472475987809958e+03,1.050633308115452564e+03,1.034480018209694208e+03,1.018024267980336049e+03,1.001278156445206719e+03,9.842542488951569339e+02,9.669656040154266066e+02,9.494257983477084508e+02
1.394959049026404955e+03,1.401991317395887791e+03,1.408169806920531983e+03,1.413505879536159455e+03,1.418013604615829308e+03,1.421709728616504663e+03,1.424613631671871872e+03,1.426747270823401777e+03,1.428135109665420259e+03,1.428804034271638557e+03,1.428783255368743767e+03,1.428104196827060377e+03,1.426800370647540831e+03,1.424907238737707075e+03,1.422462061885277080e+03,1.419503736455924127e+03,1.416072619459715952e+03,1.412210342747908271e+03,1.407959617216435618e+03,1.403364028003616113e+03,1.398467821775556786e+03,1.393315687292422353e+03,1.387952530540641419e+03,1.382423245799200913e+03,1.376772484081068797e+03,1.371044420452453323e+03,1.365282521782109370e+03,1.359529316509291675e+03,1.353826168041405481e+03,1.348213053400483432e+03,1.342728348730585822e+03,1.337408623255978682e+03,1.332288443242211315e+03,1.327400187458993742e+03,1.322773875575300508e+03,1.318437010833762542e+03,1.314414438253551680e+03,1.310728219499571424e+03,1.307397525431378426e+03,1.304438547209407034e+03,1.301864426689147876e+03,1.299685206678444501e+03,1.297907801469262040e+03,1.296535987885582927e+03,1.295570416915055148e+03,1.295008645815016962e+03,1.294845190406004349e+03,1.295071597089292482e+03,1.295676533951535475e+03,1.296645900150922216e+03,1.297962952617620658e+03,1.299608448948223668e+03,1.301560805231279346e+03,1.303796267410635892e+03,1.306289094676537616e+03,1.309011753272892747e+03,1.311935119023845346e+03,1.315028686815098581e+03,1.318260785215980604e+03,1.321598794397853680e+03,1.325009365493421910e+03,1.328458639550236740e+03,1.331912464259747821e+03,1.335336606690951385e+03,1.338696960323817621e+03,1.341959744761997626e+03,1.345091696605571542e+03,1.348060250081587355e+03,1.350833706161385180e+03,1.353381389037881718e+03,1.355673788990670801e+03,1.357682690830894217e+03,1.359381287288396152e+03,1.360744276879335985e+03,1.361747945970386127e+03,1.362370234934040809e+03,1.362590788465881133e+03,1.362390990306892718e+03,1.361753982779817534e+03,1.360664671706017998e+03,1.359109717416587500e+03,1.357077512706567632e+03,1.354558148702531298e+03,1.351543369720290684e+03,1.348026518279418042e+03,1.344002471514325180e+03,1.339467570276461856e+03,1.334419542258952788e+03,1.328857420492997562e+03,1.322781458565041476e+03,1.316193043885301677e+03,1.309094610302273168e+03,1.301489551305258829e+03,1.293382134988850112e+03,1.284777421870756598e+03,1.275681186559117577e+03,1.266099844158943370e+03,1.256040382191319168e+03,1.245510298675560534e+03,1.234517546895299574e+03,1.223070487236775307e+03,1.211177846353183440e+03,1.198848683774995607e+03,1.186092365954504658e+03,1.172918547605449476e+03,1.159337160077158387e+03,1.145358406388898629e+03,1.130992762445538347e+03,1.116250983861460099e+03,1.101144117737266924e+03,1.085683518663821587e+03,1.069880868171605016e+03,1.053748196800578853e+03,1.037297907937062064e+03,1.020542802549617249e+03,1.003496103955510875e+03,9.861714817625431806e+02,9.685830741574385456e+02,9.507455077507107717e+02
1.388602970776702477e+03,1.395438138354686089e+03,1.401423145761393243e+03,1.406569533751883682e+03,1.410891559807333124e+03,1.414406169058354180e+03,1.417132952087850981e+03,1.419094089287803854e+03,1.420314281528060519e+03,1.420820666986695642e+03,1.420642724089929970e+03,1.419812160614280629e+03,1.418362789113606141e+03,1.416330388947794518e+03,1.413752555307087732e+03,1.410668535745067402e+03,1.407119054852997124e+03,1.403146127827024202e+03,1.398792863796561733e+03,1.394103259895417750e+03,1.389121987165623295e+03,1.383894169486124383e+03,1.378465156813124622e+03,1.372880294104614904e+03,1.367184687377425917e+03,1.361422968409725854e+03,1.355639059654153471e+03,1.349875940966112012e+03,1.344175419776919171e+03,1.338577906352281616e+03,1.333122195772016084e+03,1.327845258247025640e+03,1.322782039353996424e+03,1.317965271716763937e+03,1.313425299596596460e+03,1.309189917771432647e+03,1.305284225987278887e+03,1.301730500154154242e+03,1.298548081334922472e+03,1.295753283439233201e+03,1.293359320387701928e+03,1.291376253354758092e+03,1.289810958533893654e+03,1.288667115697688359e+03,1.287945217648990365e+03,1.287642600480590090e+03,1.287753494380657457e+03,1.288269094541764389e+03,1.289177651555091870e+03,1.290464580499336307e+03,1.292112587768974436e+03,1.294101814529877856e+03,1.296409995544154526e+03,1.299012631971979317e+03,1.301883176637822999e+03,1.304993230143231585e+03,1.308312746119529493e+03,1.311810243842548971e+03,1.315453026378795585e+03,1.319207402398693830e+03,1.323038909778742209e+03,1.326912539120068004e+03,1.330792955336717341e+03,1.334644715512069524e+03,1.338432481286187567e+03,1.342121224119351609e+03,1.345676421876892618e+03,1.349064245296377067e+03,1.352251733028583430e+03,1.355206954087381291e+03,1.357899156698261095e+03,1.360298902699231803e+03,1.362378186819022858e+03,1.364110540333694871e+03,1.365471118781748373e+03,1.366436773597347383e+03,1.366986107699131708e+03,1.367099515245809243e+03,1.366759205937636125e+03,1.365949214402234247e+03,1.364655395352691130e+03,1.362865405343283783e+03,1.360568672071996161e+03,1.357756352287918844e+03,1.354421279454248861e+03,1.350557902393115000e+03,1.346162216196134068e+03,1.341231686723815073e+03,1.335765170037795087e+03,1.329762828112145144e+03,1.323226042154201195e+03,1.316157324832051472e+03,1.308560232655732534e+03,1.300439279693558319e+03,1.291799853724885679e+03,1.282648135837653854e+03,1.272991024374762219e+03,1.262836064019490323e+03,1.252191380688638219e+03,1.241065622774825442e+03,1.229467909148345598e+03,1.217407784196252351e+03,1.204895180043813752e+03,1.191940385973152388e+03,1.178554024927714636e+03,1.164747036870713828e+03,1.150530668652871555e+03,1.135916469940791558e+03,1.120916294663726376e+03,1.105542307354304739e+03,1.089806993689022875e+03,1.073723174477625889e+03,1.057304022307524974e+03,1.040563080020230018e+03,1.023514280181705772e+03,1.006171964707310849e+03,9.885509038142178042e+02,9.706663134994214488e+02,9.525338707789079535e+02
1.381813172039611800e+03,1.388427118203032478e+03,1.394195042169883436e+03,1.399128727719433755e+03,1.403242682313850537e+03,1.406554109004668362e+03,1.409082865169860042e+03,1.410851407740410195e+03,1.411884724658467576e+03,1.412210252400492664e+03,1.411857779497067213e+03,1.410859336086144822e+03,1.409249069646552243e+03,1.407063107173595881e+03,1.404339404176414746e+03,1.401117580997072309e+03,1.397438747072116030e+03,1.393345313877946637e+03,1.388880797419659530e+03,1.384089611238393218e+03,1.379016851022719948e+03,1.373708072014090249e+03,1.368209060493529250e+03,1.362565600725029526e+03,1.356823238809624399e+03,1.351027044971366877e+03,1.345221375851537687e+03,1.339449638429412062e+03,1.333754057215789999e+03,1.328175446378839979e+03,1.322752988459742255e+03,1.317524021318035011e+03,1.312523834913001792e+03,1.307785479478031448e+03,1.303339586579568049e+03,1.299214204471530820e+03,1.295434649060294532e+03,1.292023371685131451e+03,1.288999844795423314e+03,1.286380466469838211e+03,1.284178484575171524e+03,1.282403941205338469e+03,1.281063637875042559e+03,1.280161121770144518e+03,1.279696693178894293e+03,1.279667434047193638e+03,1.280067257418634426e+03,1.280886977338199586e+03,1.282114398619188933e+03,1.283734425698123005e+03,1.285729189634216937e+03,1.288078192149914457e+03,1.290758465459678064e+03,1.293744746496368180e+03,1.297009664020884884e+03,1.300523936991822438e+03,1.304256582479764802e+03,1.308175131336160348e+03,1.312245849770702307e+03,1.316433964954420844e+03,1.320703892748744920e+03,1.325019465663935762e+03,1.329344159173391290e+03,1.333641314553386110e+03,1.337874356479994958e+03,1.342007003695861385e+03,1.346003471157777994e+03,1.349828662190914201e+03,1.353448349305085230e+03,1.356829342471554355e+03,1.359939643813258272e+03,1.362748587825391041e+03,1.365226966414819344e+03,1.367347138223505681e+03,1.369083121881089028e+03,1.370410673012218922e+03,1.371307345003582896e+03,1.371752533710726766e+03,1.371727506454410559e+03,1.371215415817504208e+03,1.370201298904967871e+03,1.368672062868981811e+03,1.366616457627520958e+03,1.364025036815836529e+03,1.360890108105490071e+03,1.357205674103586944e+03,1.352967365105062754e+03,1.348172365012717137e+03,1.342819331763069840e+03,1.336908313601009922e+03,1.330440662532965007e+03,1.323418946257452717e+03,1.315846859824388957e+03,1.307729138211167992e+03,1.299071470925869562e+03,1.289880419657218908e+03,1.280163339888756354e+03,1.269928307282995092e+03,1.259184049521736370e+03,1.247939884163341503e+03,1.236205662948477539e+03,1.223991722854692398e+03,1.211308844069201768e+03,1.198168214920222908e+03,1.184581403682193695e+03,1.170560337050845419e+03,1.156117284972029893e+03,1.141264851405047239e+03,1.126015970508099144e+03,1.110383907651705840e+03,1.094382264596381219e+03,1.078024988114140569e+03,1.061326381290318068e+03,1.044301116712587827e+03,1.026964250738575174e+03,1.009331238031338557e+03,9.914179455634547367e+02,9.732406653145055770e+02,9.548161249229940495e+02
1.374614907089149028e+03,1.380983966062482523e+03,1.386511485011953027e+03,1.391209559090796802e+03,1.395093012593300955e+03,1.398179371510599822e+03,1.400488822881174201e+03,1.402044160581710003e+03,1.402870717286663648e+03,1.402996282415760788e+03,1.402451005986898963e+03,1.401267288396721369e+03,1.399479656261633863e+03,1.397124624567241426e+03,1.394240545492703632e+03,1.390867444397678582e+03,1.387046843581264739e+03,1.382821574544352870e+03,1.378235579606517376e+03,1.373333703845764376e+03,1.368161478441810914e+03,1.362764896610137839e+03,1.357190183413511477e+03,1.351483560828238979e+03,1.345691009523494813e+03,1.339858028881790460e+03,1.334029396846346799e+03,1.328248931225672095e+03,1.322559254116222974e+03,1.317001561119576081e+03,1.311615397031159546e+03,1.306438439661967323e+03,1.301506293423364468e+03,1.296852294257453195e+03,1.292507327431753765e+03,1.288499659637648847e+03,1.284854786737244694e+03,1.281595298393954636e+03,1.278740760698919303e+03,1.276307617769318767e+03,1.274309113147170137e+03,1.272755231669025761e+03,1.271652662310583537e+03,1.271004782336089193e+03,1.270811662903315209e+03,1.271070096091858886e+03,1.271773643138059469e+03,1.272912703475530179e+03,1.274474603998361772e+03,1.276443707786484765e+03,1.278801541361295676e+03,1.281526939376798964e+03,1.284596205498497511e+03,1.287983288081486080e+03,1.291659969131952039e+03,1.295596064924126722e+03,1.299759636549241350e+03,1.304117208595150714e+03,1.308633994096124297e+03,1.313274123852589582e+03,1.318000878200815805e+03,1.322776919313062535e+03,1.327564522129350280e+03,1.332325802062863431e+03,1.337022937681305393e+03,1.341618386645631062e+03,1.346075093284617424e+03,1.350356686297330953e+03,1.354427665204386813e+03,1.358253574311317834e+03,1.361801163101584507e+03,1.365038532140743200e+03,1.367935263745102930e+03,1.370462536845479008e+03,1.372593225657294397e+03,1.374301981949897936e+03,1.375565300888368256e+03,1.376361570597813852e+03,1.376671105771324164e+03,1.376476165805859182e+03,1.375760958103782514e+03,1.374511627319371428e+03,1.372716231457992535e+03,1.370364705849107622e+03,1.367448816111817450e+03,1.363962101311971537e+03,1.359899808572634811e+03,1.355258820443895956e+03,1.350037576363997232e+03,1.344235989550984414e+03,1.337855360653407388e+03,1.330898289460138358e+03,1.323368585924226181e+03,1.315271181694748975e+03,1.306612043275209999e+03,1.297398087838465017e+03,1.287637102628197908e+03,1.277337668767243713e+03,1.266509090175410392e+03,1.255161328175922336e+03,1.243304942242019479e+03,1.230951037205732064e+03,1.218111217121263735e+03,1.204797545847815172e+03,1.191022514292802271e+03,1.176799014138149460e+03,1.162140317761166671e+03,1.147060063959110721e+03,1.131572248993992616e+03,1.115691222392852296e+03,1.099431686869377700e+03,1.082808701676156943e+03,1.065837688653584337e+03,1.048534440211669562e+03,1.030915128464909003e+03,1.012996314737760031e+03,9.947949586687740293e+02,9.763284261646025470e+02,9.576144954900902349e+02
1.367034346720635085e+03,1.373135413295555281e+03,1.378399594740879365e+03,1.382839369613553345e+03,1.386469950383993137e+03,1.389309256269851858e+03,1.391377872836733559e+03,1.392698998001006657e+03,1.393298374151993585e+03,1.393204206201028683e+03,1.392447065462886940e+03,1.391059779379694646e+03,1.389077307207821605e+03,1.386536601903771725e+03,1.383476458563919095e+03,1.379937349894696126e+03,1.375961249312549171e+03,1.371591442395730610e+03,1.366872327531336850e+03,1.361849206719334688e+03,1.356568067609433228e+03,1.351075357955205618e+03,1.345417753770985428e+03,1.339641922570156112e+03,1.333794283146360840e+03,1.327920763431539854e+03,1.322066558024558390e+03,1.316275887031237289e+03,1.310591757889381370e+03,1.305055731870583941e+03,1.299707696952994866e+03,1.294585648746208790e+03,1.289725481119717642e+03,1.285160788140639852e+03,1.280922678864465979e+03,1.277039606444218407e+03,1.273537212930076976e+03,1.270438191022697538e+03,1.267762163920892590e+03,1.265525584268413468e+03,1.263741653056958057e+03,1.262420259183958251e+03,1.261567940196408017e+03,1.261187864576908169e+03,1.261279835747493053e+03,1.261840317782096463e+03,1.262862482632194315e+03,1.264336278483493061e+03,1.266248518677312177e+03,1.268582990449921681e+03,1.271320582569121825e+03,1.274439430781269948e+03,1.277915079826134161e+03,1.281720660632898444e+03,1.285827081180245614e+03,1.290203229388169120e+03,1.294816186310434659e+03,1.299631447815730780e+03,1.304613152883360499e+03,1.309724316596741573e+03,1.314927065895508122e+03,1.320182876144966031e+03,1.325452806599987980e+03,1.330697732879189289e+03,1.335878574623586246e+03,1.340956516591519858e+03,1.345893221537144882e+03,1.350651033332472934e+03,1.355193168920739026e+03,1.359483897830928527e+03,1.363488708137051390e+03,1.367174457909821513e+03,1.370509511380371578e+03,1.373463859213417209e+03,1.376009222468647522e+03,1.378119140011649506e+03,1.379769039317228817e+03,1.380936290786095014e+03,1.381600245868508182e+03,1.381742259453336146e+03,1.381345697136171793e+03,1.380395928123780550e+03,1.378880304662529852e+03,1.376788128994107865e+03,1.374110608941560258e+03,1.370840803311353739e+03,1.366973558362153426e+03,1.362505436637682124e+03,1.357434639489243182e+03,1.351760924623195478e+03,1.345485520000290308e+03,1.338611035387626771e+03,1.331141372821193499e+03,1.323081637178183200e+03,1.314438047985086087e+03,1.305217853501086665e+03,1.295429248018463795e+03,1.285081293213800109e+03,1.274183844268204439e+03,1.262747481352881778e+03,1.250783446950547614e+03,1.238303589355216445e+03,1.225320312564773076e+03,1.211846532654468547e+03,1.197895640596787416e+03,1.183481471375962883e+03,1.168618279135140710e+03,1.153320717992555728e+03,1.137603828071204134e+03,1.121483026205584110e+03,1.104974100720028218e+03,1.088093209616763261e+03,1.070856881468422671e+03,1.053282018279852082e+03,1.035385899567512297e+03,1.017186186901634301e+03,9.987009281660566558e+02,9.799485608129241427e+02,9.609479134233550894e+02
1.359098299666718276e+03,1.364908932436264195e+03,1.369887341521195140e+03,1.374046464089177107e+03,1.377401976092613950e+03,1.379972264974209565e+03,1.381778389115363098e+03,1.382844023655040701e+03,1.383195392388196069e+03,1.382861185542500607e+03,1.381872463329615584e+03,1.380262545271461249e+03,1.378066885412308920e+03,1.375322933642841235e+03,1.372069983481464760e+03,1.368349006780271793e+03,1.364202475946216282e+03,1.359674174391897168e+03,1.354808996052265684e+03,1.349652734923468415e+03,1.344251865695329798e+03,1.338653316659089796e+03,1.332904236174951620e+03,1.327051754078799604e+03,1.321142739492501732e+03,1.315223556576481997e+03,1.309339819825348059e+03,1.303536150556532448e+03,1.297855936276871716e+03,1.292341094632243085e+03,1.287031843650083829e+03,1.281966479973265223e+03,1.277181166756145331e+03,1.272709732849504007e+03,1.268583484840405163e+03,1.264831033436315920e+03,1.261478135590111606e+03,1.258547553654801959e+03,1.256058932734686778e+03,1.254028697263881668e+03,1.252469967695487412e+03,1.251392498025812529e+03,1.250802634709861650e+03,1.250703297348506339e+03,1.251093981345638213e+03,1.251970782547535691e+03,1.253326443688401014e+03,1.255150422277447205e+03,1.257428979376277312e+03,1.260145288532665745e+03,1.263279563959958068e+03,1.266809206882838907e+03,1.270708968811148907e+03,1.274951130356767180e+03,1.279505694074966414e+03,1.284340589693524180e+03,1.289421889991174567e+03,1.294714035503134255e+03,1.300180066166512233e+03,1.305781857973070373e+03,1.311480362671823514e+03,1.317235848559472288e+03,1.323008140412838657e+03,1.328756856654190869e+03,1.334441641896949704e+03,1.340022393095249299e+03,1.345459477615137757e+03,1.350713941656680618e+03,1.355747707583414922e+03,1.360523758856906397e+03,1.365006311427782293e+03,1.369160970598585436e+03,1.372954872545965600e+03,1.376356809867956599e+03,1.379337340704101507e+03,1.381868881159635293e+03,1.383925780947497287e+03,1.385484382341375522e+03,1.386523062707003191e+03,1.387022261045357027e+03,1.386964489138374347e+03,1.386334328033189649e+03,1.385118410733286964e+03,1.383305392082578464e+03,1.380885906930328474e+03,1.377852517749563503e+03,1.374199652948911989e+03,1.369923537166614324e+03,1.365022114865962976e+03,1.359494968563368047e+03,1.353343233014067664e+03,1.346569506656619069e+03,1.339177761576625471e+03,1.331173253193586106e+03,1.322562430803601274e+03,1.313352850026294391e+03,1.303553088108355269e+03,1.293172662930225442e+03,1.282221956448574929e+03,1.270712143187106449e+03,1.258655124264048709e+03,1.246063467318211679e+03,1.232950352568866492e+03,1.219329525119643677e+03,1.205215253495293837e+03,1.190622294283884685e+03,1.175565862647832546e+03,1.160061608366204609e+03,1.144125596979566353e+03,1.127774295528212178e+03,1.111024562305967720e+03,1.093893639995461626e+03,1.076399151507483339e+03,1.058559097816972553e+03,1.040391857071324694e+03,1.021916184243125258e+03,1.003151210608505266e+03,9.841164423537870789e+02,9.648317576460194687e+02
1.350833941645078767e+03,1.356332463422911360e+03,1.361003270265454830e+03,1.364859835798295308e+03,1.367918378150276340e+03,1.370197832093243960e+03,1.371719807899655507e+03,1.372508536541567764e+03,1.372590800935130119e+03,1.371995853023887548e+03,1.370755316590886650e+03,1.368903075793542939e+03,1.366475149525125744e+03,1.363509551821900914e+03,1.360046138654119886e+03,1.356126441561210868e+03,1.351793488715222566e+03,1.347091614120661689e+03,1.342066255781776363e+03,1.336763743788963666e+03,1.331231079392399124e+03,1.325515706242455053e+03,1.319665275080661559e+03,1.313727403261488234e+03,1.307749430571922403e+03,1.301778172891743225e+03,1.295859675301597917e+03,1.290038966296809804e+03,1.284359814801827952e+03,1.278864491702384385e+03,1.273593537618842674e+03,1.268585538634728891e+03,1.263876911668466164e+03,1.259501701133628330e+03,1.255491388473886673e+03,1.251874716083163321e+03,1.248677527029754629e+03,1.245922621896283317e+03,1.243629633925420421e+03,1.241814923526064831e+03,1.240491493046639107e+03,1.239668922563243086e+03,1.239353327261421327e+03,1.239547336813706579e+03,1.240250096971652965e+03,1.241457293404006123e+03,1.243161197622190230e+03,1.245350734644245449e+03,1.248011571859467495e+03,1.251126228371069601e+03,1.254674203915007865e+03,1.258632126281852607e+03,1.262973916007200387e+03,1.267670966946402132e+03,1.272692341213209147e+03,1.278004976841022881e+03,1.283573906420886942e+03,1.289362484883945172e+03,1.295332624528392671e+03,1.301445035343273730e+03,1.307659468653878321e+03,1.313934962107020738e+03,1.320230084028387637e+03,1.326503175219103241e+03,1.332712586313553174e+03,1.338816908895108782e+03,1.344775198659388025e+03,1.350547189025274292e+03,1.356093493720328524e+03,1.361375797007973460e+03,1.366357030377303317e+03,1.371001534680181749e+03,1.375275206872738181e+03,1.379145630696999433e+03,1.382582190821039148e+03,1.385556170140266204e+03,1.388040830126095670e+03,1.390011474288827685e+03,1.391445494996919024e+03,1.392322404062779469e+03,1.392623847663733613e+03,1.392333606313993187e+03,1.391437580737600911e+03,1.389923764611922934e+03,1.387782205255046165e+03,1.385004953417277193e+03,1.381586003406244117e+03,1.377521224825995660e+03,1.372808287243160748e+03,1.367446579107216849e+03,1.361437122247880097e+03,1.354782483250835185e+03,1.347486682974359610e+03,1.339555105414911850e+03,1.330994407060517460e+03,1.321812427788418518e+03,1.312018104269283413e+03,1.301621386736293061e+03,1.290633159865190692e+03,1.279065168393030262e+03,1.266929947980659335e+03,1.254240761699062659e+03,1.241011542394401658e+03,1.227256841062860076e+03,1.212991781246177425e+03,1.198232019343616230e+03,1.182993710627808468e+03,1.167293480651815116e+03,1.151148401644249361e+03,1.134575973409416520e+03,1.117594108181156116e+03,1.100221118823046709e+03,1.082475709724450326e+03,1.064376969711697029e+03,1.045944366276684150e+03,1.027197740421144772e+03,1.008157301423412264e+03,9.888436208552396920e+02,9.692776252082921928e+02
1.342268554749713530e+03,1.347434149839217753e+03,1.351776235268728442e+03,1.355308901041305717e+03,1.358048988934088129e+03,1.360016063606649595e+03,1.361232370397265640e+03,1.361722779430014953e+03,1.361514715735616846e+03,1.360638075177207838e+03,1.359125126068571262e+03,1.357010396475400512e+03,1.354330547299931595e+03,1.351124231363841091e+03,1.347431938823462588e+03,1.343295829373347487e+03,1.338759551818013733e+03,1.333868051716140826e+03,1.328667367924808559e+03,1.323204418992495903e+03,1.317526780467041817e+03,1.311682454296823835e+03,1.305719631609087855e+03,1.299686450246803133e+03,1.293630748533669248e+03,1.287599816814306678e+03,1.281640148382251255e+03,1.275797191460968634e+03,1.270115103941657708e+03,1.264636512605358121e+03,1.259402278564917196e+03,1.254451270654527207e+03,1.249820148469747210e+03,1.245543156719968692e+03,1.241651932496924701e+03,1.238175326988551433e+03,1.235139243076414459e+03,1.232566490148731191e+03,1.230476657339535677e+03,1.228886006269400923e+03,1.227807384215162301e+03,1.227250158476735578e+03,1.227220172539721261e+03,1.227719724454858124e+03,1.228747567671333400e+03,1.230298934371905261e+03,1.232365581166609445e+03,1.234935856809377128e+03,1.237994791411588494e+03,1.241524206439202317e+03,1.245502844599046966e+03,1.249906518545934887e+03,1.254708277178681783e+03,1.259878588140766624e+03,1.265385535002687675e+03,1.271195027479637929e+03,1.277271022930953677e+03,1.283575757299037605e+03,1.290069983575207971e+03,1.296713215830028048e+03,1.303463976815880642e+03,1.310280047140914803e+03,1.317118714025720237e+03,1.323937017687116395e+03,1.330691993446948118e+03,1.337340907737008820e+03,1.343841486263138904e+03,1.350152132701201026e+03,1.356232136423372822e+03,1.362041867893589369e+03,1.367542960524071304e+03,1.372698477948784330e+03,1.377473065842309097e+03,1.381833087591566255e+03,1.385746743311162390e+03,1.389184171878124744e+03,1.392117535846345390e+03,1.394521089282759704e+03,1.396371228743920938e+03,1.397646527780951601e+03,1.398327755520898108e+03,1.398397880021242827e+03,1.397842057230299815e+03,1.396647606507442788e+03,1.394803973762838496e+03,1.392302683365074017e+03,1.389137280036215316e+03,1.385303262006808836e+03,1.380798006737821424e+03,1.375620690532602566e+03,1.369772203359765854e+03,1.363255060188116431e+03,1.356073310097972580e+03,1.348232444380659899e+03,1.339739304770582976e+03,1.330601992873683457e+03,1.320829781763778328e+03,1.310433030615901316e+03,1.299423103135266047e+03,1.287812290423678178e+03,1.275613738803986962e+03,1.262841382999792813e+03,1.249509884943537600e+03,1.235634578363773471e+03,1.221231419183226308e+03,1.206316941645249926e+03,1.190908219978853367e+03,1.175022835313291353e+03,1.158678847463287184e+03,1.141894771126784235e+03,1.124689555969167031e+03,1.107082570012275710e+03,1.089093585703417375e+03,1.070742768009489282e+03,1.052050663864080661e+03,1.033038192291172663e+03,1.013726634537118798e+03,9.941376235627186588e+02,9.742931322785058228e+02
1.333429279618096416e+03,1.338242087586854041e+03,1.342235146840157768e+03,1.345423245155916220e+03,1.347823931564071700e+03,1.349457485933926819e+03,1.350346875210462031e+03,1.350517695925943144e+03,1.349998102692202110e+03,1.348818722466777672e+03,1.347012554481476627e+03,1.344614855824612278e+03,1.341663012777025187e+03,1.338196398116357841e+03,1.334256214722639697e+03,1.329885325939969789e+03,1.325128073272860547e+03,1.320030082120102179e+03,1.314638056372554047e+03,1.308999562822870985e+03,1.303162806452810173e+03,1.297176397776725025e+03,1.291089113526220217e+03,1.284949652059212895e+03,1.278806384966048199e+03,1.272707106423762980e+03,1.266698781916425105e+03,1.260827297993370848e+03,1.255137214777008012e+03,1.249671522956894933e+03,1.244471407016269495e+03,1.239576016430499976e+03,1.235022246553483910e+03,1.230844530868039556e+03,1.227074646219177112e+03,1.223741532575508472e+03,1.220871128773844703e+03,1.218486225596310078e+03,1.216606337408128411e+03,1.215247593449321585e+03,1.214422649725539486e+03,1.214140622283388211e+03,1.214407042485975580e+03,1.215223834725905817e+03,1.216589316827752782e+03,1.218498223202220970e+03,1.220941750621209394e+03,1.223907626289329983e+03,1.227380197695106745e+03,1.231340543536113501e+03,1.235766604828873596e+03,1.240633335138740449e+03,1.245912868698728062e+03,1.251574705031955546e+03,1.257585908551354123e+03,1.263911321484324390e+03,1.270513788360929993e+03,1.277354390212849694e+03,1.284392686558167952e+03,1.291586963194926739e+03,1.298894483794635789e+03,1.306271743276561438e+03,1.313674720953906672e+03,1.321059131474782589e+03,1.328380671632805615e+03,1.335595261194264822e+03,1.342659275979832273e+03,1.349529771547558312e+03,1.356164695949112684e+03,1.362523090171276181e+03,1.368565275027533971e+03,1.374253023428679626e+03,1.379549717134086450e+03,1.384420487264738767e+03,1.388832338042998799e+03,1.392754253409852709e+03,1.396157286355783981e+03,1.399014630984262567e+03,1.401301677504602139e+03,1.402996050521524694e+03,1.404077631150303432e+03,1.404528563636541776e+03,1.404333247297135131e+03,1.403478314721940023e+03,1.401952597283033811e+03,1.399747079088863302e+03,1.396854840593639210e+03,1.393270993126947815e+03,1.388992605644962168e+03,1.384018625022486276e+03,1.378349791204695066e+03,1.371988548519478627e+03,1.364938954416297065e+03,1.357206586846621349e+03,1.348798451435410470e+03,1.339722889514168628e+03,1.329989487995447917e+03,1.319608991967903194e+03,1.308593220782039225e+03,1.296954988281497208e+03,1.284708027714957325e+03,1.271866921741617944e+03,1.258447037820559444e+03,1.244464469153036816e+03,1.229935981228798937e+03,1.214878963914467704e+03,1.199311388915589987e+03,1.183251772345554855e+03,1.166719142045466242e+03,1.149733009220344456e+03,1.132313343889725502e+03,1.114480553595324409e+03,1.096255464765620445e+03,1.077659306107130760e+03,1.058713693374934337e+03,1.039440614870424270e+03,1.019862417022074737e+03,1.000001789424560229e+03,9.798817487422350041e+02
1.324342882505989337e+03,1.328784088109789764e+03,1.332408732026958432e+03,1.335232382068559446e+03,1.337273379581137760e+03,1.338552807003345833e+03,1.339094442020136739e+03,1.338924697948217727e+03,1.338072550064800225e+03,1.336569447678893539e+03,1.334449211838885731e+03,1.331747918672279184e+03,1.328503768461559048e+03,1.324756940673883946e+03,1.320549435280361649e+03,1.315924900821884421e+03,1.310928449801982424e+03,1.305606462111083829e+03,1.300006377310194011e+03,1.294176476723324868e+03,1.288165656406177959e+03,1.282023192171515348e+03,1.275798497958527605e+03,1.269540878932561100e+03,1.263299280791197361e+03,1.257122036832323602e+03,1.251056614407277038e+03,1.245149362437040509e+03,1.239445261710243358e+03,1.233987679707933012e+03,1.228818131710199168e+03,1.223976049934470666e+03,1.219498562432428116e+03,1.215420283433570830e+03,1.211773116767026295e+03,1.208586073920291938e+03,1.205885108203906839e+03,1.203692966385713817e+03,1.202029059037515253e+03,1.200909350702016354e+03,1.200346270839751242e+03,1.200348646355747178e+03,1.200921656335256557e+03,1.202066809438858172e+03,1.203781944221201456e+03,1.206061252446581875e+03,1.208895325280449924e+03,1.212271222040845032e+03,1.216172560999825009e+03,1.220579631534312284e+03,1.225469526740608899e+03,1.230816295449127438e+03,1.236591112407940727e+03,1.242762465247167484e+03,1.249296356693288317e+03,1.256156520374436013e+03,1.263304648446530791e+03,1.270700629176822304e+03,1.278302792547313402e+03,1.286068161886501457e+03,1.293952709504478889e+03,1.301911614294301216e+03,1.309899519271556755e+03,1.317870787054265747e+03,1.325779751336169511e+03,1.333580962477562935e+03,1.341229425427898377e+03,1.348680828302661666e+03,1.355891760061705099e+03,1.362819915875942115e+03,1.369424288922146616e+03,1.375665347509705271e+03,1.381505196616104058e+03,1.386907723087889963e+03,1.391838723948268580e+03,1.396266017438910239e+03,1.400159536609977522e+03,1.403491405456035864e+03,1.406235997774487487e+03,1.408369979094979954e+03,1.409872332190926272e+03,1.410724366836070203e+03,1.410909714607759724e+03,1.410414309663224913e+03,1.409226356523963887e+03,1.407336285995462049e+03,1.404736700424027958e+03,1.401422309548888734e+03,1.397389858245691585e+03,1.392638047477091504e+03,1.387167449767363678e+03,1.380980420501700792e+03,1.374081006317451966e+03,1.366474851805350681e+03,1.358169105674769071e+03,1.349172327459597000e+03,1.339494395752295304e+03,1.329146418854336389e+03,1.318140648623709012e+03,1.306490398186310358e+03,1.294209964059583399e+03,1.281314553115960280e+03,1.267820214692208083e+03,1.253743778030710018e+03,1.239102795121818872e+03,1.223915488904398444e+03,1.208200706676143227e+03,1.191977878467705750e+03,1.175266980046261551e+03,1.158088500136110497e+03,1.140463411377064403e+03,1.122413144486428109e+03,1.103959565047824071e+03,1.085124952320168404e+03,1.065931979442951388e+03,1.046403694409225636e+03,1.026563501185280302e+03,1.006435140375120795e+03,9.860426688579888150e+02
1.315035539086831704e+03,1.319087457974216022e+03,1.322325311209056508e+03,1.324765529120191559e+03,1.326427331197027570e+03,1.327332691090077788e+03,1.327506288141954656e+03,1.326975445093941744e+03,1.325770051691380559e+03,1.323922473997293764e+03,1.321467449317716500e+03,1.318441966743388321e+03,1.314885133419911654e+03,1.310838026771385330e+03,1.306343533019872893e+03,1.301446172463683524e+03,1.296191912100206537e+03,1.290627966302672348e+03,1.284802586383166499e+03,1.278764839995500779e+03,1.272564381449408756e+03,1.266251214120401301e+03,1.259875446246669981e+03,1.253487041503467935e+03,1.247135565835551461e+03,1.240869932108121247e+03,1.234738144204649643e+03,1.228787042255549068e+03,1.223062050722889808e+03,1.217606931093209596e+03,1.212463540941513202e+03,1.207671601124499375e+03,1.203268472839309197e+03,1.199288946245426359e+03,1.195765042291663349e+03,1.192725829317599164e+03,1.190197255909582054e+03,1.188202001386301390e+03,1.186759345168112077e+03,1.185885056149531238e+03,1.185591303045746145e+03,1.185886586523814685e+03,1.186775693758330362e+03,1.188259675871565378e+03,1.190335848531333795e+03,1.192997815787612808e+03,1.196235517033984024e+03,1.200035296783346894e+03,1.204379996752196803e+03,1.209249069555520236e+03,1.214618713127671981e+03,1.220462024805159217e+03,1.226749173837574290e+03,1.233447590934618574e+03,1.240522173312376253e+03,1.247935503572195785e+03,1.255648080632569872e+03,1.263618560839410520e+03,1.271804007304282095e+03,1.280160145464572679e+03,1.288641622824776277e+03,1.297202270824367815e+03,1.305795366785645228e+03,1.314373893923986770e+03,1.322890797452858806e+03,1.331299234886192835e+03,1.339552818730253193e+03,1.347605849864716447e+03,1.355413540037182202e+03,1.362932222034800589e+03,1.370119546249561608e+03,1.376934662517968491e+03,1.383338386289120990e+03,1.389293348355668968e+03,1.394764127566886827e+03,1.399717366130558503e+03,1.404121867297293193e+03,1.407948675405757513e+03,1.411171138447104568e+03,1.413764953479972291e+03,1.415708195391240224e+03,1.416981329650733187e+03,1.417567209848291668e+03,1.417451060927421622e+03,1.416620449140131086e+03,1.415065239841027051e+03,1.412777544314761826e+03,1.409751656888847265e+03,1.405983983623240192e+03,1.401472963889152197e+03,1.396218986152380694e+03,1.390224299261471970e+03,1.383492920509283522e+03,1.376030541688626954e+03,1.367844434300134253e+03,1.358943354994530182e+03,1.349337452243669304e+03,1.339038175136905238e+03,1.328058185093016618e+03,1.316411271165393146e+03,1.304112269500995808e+03,1.291176987393947229e+03,1.277622132254366306e+03,1.263465245694085525e+03,1.248724642814998788e+03,1.233419356674793562e+03,1.217569087800196485e+03,1.201194158521108420e+03,1.184315471811381030e+03,1.166954474244601442e+03,1.149133122606951702e+03,1.130873853654753475e+03,1.112199556462035389e+03,1.093133546773828584e+03,1.073699542763735963e+03,1.053921641589628052e+03,1.033824296148705344e+03,1.013432291451952779e+03,9.927707200677949686e+02
1.305532636468230749e+03,1.309178796282964868e+03,1.312012592018402074e+03,1.314051398584563685e+03,1.315315399487612922e+03,1.315827548737800498e+03,1.315613519201981944e+03,1.314701637061890324e+03,1.313122802116825824e+03,1.310910393755065797e+03,1.308100162511656663e+03,1.304730107230564272e+03,1.300840337955869018e+03,1.296472924788653927e+03,1.291671733062784369e+03,1.286482245312481382e+03,1.280951370626633661e+03,1.275127242107518441e+03,1.269059003274079487e+03,1.262796584370390747e+03,1.256390469657362019e+03,1.249891456878252711e+03,1.243350410195241238e+03,1.236818007993102128e+03,1.230344487036222517e+03,1.223979384544857794e+03,1.217771279824763496e+03,1.211767537139870001e+03,1.206014051559242716e+03,1.200554999536713240e+03,1.195432595992790539e+03,1.190686859663880114e+03,1.186355388462332030e+03,1.182473146552431444e+03,1.179072264792177066e+03,1.176181856118169662e+03,1.173827847361928207e+03,1.172032828880853458e+03,1.170815923266304253e+03,1.170192674256094961e+03,1.170174956830338488e+03,1.170770909308464070e+03,1.171984888094308189e+03,1.173817445535458546e+03,1.176265331175671690e+03,1.179321516486058727e+03,1.182975242964662584e+03,1.187212093296435569e+03,1.192014085069195289e+03,1.197359786347577256e+03,1.203224452218965098e+03,1.209580181244430833e+03,1.216396090576665983e+03,1.223638508346948811e+03,1.231271181776889762e+03,1.239255499339533799e+03,1.247550725179694382e+03,1.256114243907174796e+03,1.264901813799142019e+03,1.273867826391161771e+03,1.282965570400210481e+03,1.292147497908279320e+03,1.301365490742053453e+03,1.310571125012232869e+03,1.319715931825273628e+03,1.328751652250005236e+03,1.337630484710442261e+03,1.346305323083590110e+03,1.354729983905073823e+03,1.362859421225104143e+03,1.370649927809976134e+03,1.378059321548849994e+03,1.385047116099219920e+03,1.391574674985172578e+03,1.397605348548253914e+03,1.403104593338527593e+03,1.408040073721426324e+03,1.412381745661574769e+03,1.416101922825572274e+03,1.419175325319861031e+03,1.421579111544707530e+03,1.423292893799482727e+03,1.424298738415814114e+03,1.424581151322307051e+03,1.424127050056044254e+03,1.422925723330960636e+03,1.420968779350441764e+03,1.418250084110685293e+03,1.414765690982198748e+03,1.410513762879031901e+03,1.405494488329582737e+03,1.399709992749123103e+03,1.393164246183736623e+03,1.385862968748762796e+03,1.377813534923598581e+03,1.369024877789968514e+03,1.359507394214269425e+03,1.349272851877918356e+03,1.338334298954612677e+03,1.326705977121969909e+03,1.314403238479012998e+03,1.301442466822463530e+03,1.287841003615568070e+03,1.273617078865305984e+03,1.258789747008934228e+03,1.243378827800763474e+03,1.227404852086294795e+03,1.210889012255004445e+03,1.193853117076102990e+03,1.176319550544957337e+03,1.158311234302138246e+03,1.139851593133059168e+03,1.120964523014407405e+03,1.101674361144097020e+03,1.082005857374608468e+03,1.061984146464900277e+03,1.041634720573365712e+03,1.020983401433025051e+03,1.000056311679405667e+03
1.295858594590152961e+03,1.299083811075689709e+03,1.301497481710995316e+03,1.303118006974091259e+03,1.303966619582418389e+03,1.304067342765058356e+03,1.303446934872591555e+03,1.302134820006179098e+03,1.300163004424562359e+03,1.297565978572968106e+03,1.294380604670267530e+03,1.290645989890580950e+03,1.286403345281095653e+03,1.281695830669007364e+03,1.276568385925963639e+03,1.271067549077127751e+03,1.265241261862928695e+03,1.259138663483344772e+03,1.252809873376048472e+03,1.246305763999286683e+03,1.239677724706982872e+03,1.232977417915302567e+03,1.226256528865822702e+03,1.219566510388754068e+03,1.212958324159328640e+03,1.206482180019644375e+03,1.200187275006199116e+03,1.194121533778671846e+03,1.188331352186818776e+03,1.182861345739414674e+03,1.177754104750353008e+03,1.173049957932314783e+03,1.168786746186886376e+03,1.164999608301808166e+03,1.161720780210314615e+03,1.158979409395401944e+03,1.156801385932505809e+03,1.155209191558903512e+03,1.154221768037165248e+03,1.153854405944768587e+03,1.154118654872810794e+03,1.155022255855766161e+03,1.156569096682329700e+03,1.158759190556317208e+03,1.161588678388367043e+03,1.165049854805375162e+03,1.169131217767499720e+03,1.173817541484118919e+03,1.179089972122519612e+03,1.184926145608488696e+03,1.191300326628792845e+03,1.198183567763285509e+03,1.205543887502181633e+03,1.213346465742817145e+03,1.221553855212669532e+03,1.230126207132949276e+03,1.239021509321338272e+03,1.248195834834808693e+03,1.257603599175247609e+03,1.267197824022571240e+03,1.276930405423019920e+03,1.286752384344748634e+03,1.296614217518819942e+03,1.306466046511265858e+03,1.316257963020542547e+03,1.325940268463830307e+03,1.335463726004352793e+03,1.344779803279100179e+03,1.353840904210352619e+03,1.362600588424073976e+03,1.371013776951251202e+03,1.379036943052954030e+03,1.386628287184020792e+03,1.393747895291487339e+03,1.400357879830133925e+03,1.406422503066029549e+03,1.411908282427697714e+03,1.416784077850938047e+03,1.421021161245084841e+03,1.424593268383501027e+03,1.427476633687059575e+03,1.429650008524546593e+03,1.431094663796345003e+03,1.431794377695992807e+03,1.431735409656846286e+03,1.430906461587049989e+03,1.429298627574439479e+03,1.426905333303291854e+03,1.423722266466860674e+03,1.419747299482941116e+03,1.414980405825129083e+03,1.409423571269867580e+03,1.403080701330024112e+03,1.395957526100308087e+03,1.388061503679644375e+03,1.379401723262073119e+03,1.369988808902227220e+03,1.359834824865932433e+03,1.348953183372503645e+03,1.337358555424903443e+03,1.325066785309024681e+03,1.312094809225812014e+03,1.298460578401779458e+03,1.284182986906539782e+03,1.269281804291999833e+03,1.253777613058780162e+03,1.237691750852485256e+03,1.221046257197418299e+03,1.203863824489172657e+03,1.186167752891573627e+03,1.167981908718342311e+03,1.149330685826431591e+03,1.130238969506641070e+03,1.110732102328063547e+03,1.090835851376266191e+03,1.070576376320624149e+03,1.049980197753521679e+03,1.029074165262784163e+03,1.007885424727766463e+03
1.286036707843387831e+03,1.288827155541456477e+03,1.290805918797853337e+03,1.291992502910811254e+03,1.292409273590746352e+03,1.292081411051955683e+03,1.291036850311735861e+03,1.289306207403507415e+03,1.286922691287490579e+03,1.283922001327082398e+03,1.280342210291092442e+03,1.276223632940854259e+03,1.271608680365906594e+03,1.266541700342138483e+03,1.261068804100474381e+03,1.255237680011818611e+03,1.249097394813712526e+03,1.242698183124551178e+03,1.236091226111610695e+03,1.229328420297323646e+03,1.222462137603740302e+03,1.215544977845668654e+03,1.208629514987869925e+03,1.201768038579022914e+03,1.195012291863773498e+03,1.188413208152657489e+03,1.182020647096895118e+03,1.175883132569493910e+03,1.170047593895098771e+03,1.164559112197300692e+03,1.159460673642973916e+03,1.154792931358029136e+03,1.150593977767116485e+03,1.146899129071161497e+03,1.143740723520694928e+03,1.141147935070374160e+03,1.139146603910459589e+03,1.137759085265533258e+03,1.137004117729285554e+03,1.136896712268642887e+03,1.137448062880857151e+03,1.138665479725752448e+03,1.140552345382681551e+03,1.143108094700248785e+03,1.146328218517885261e+03,1.150204291343791965e+03,1.154724022875900346e+03,1.159871333053238459e+03,1.165626450126542522e+03,1.171966031041537235e+03,1.178863303237982564e+03,1.186288226784603239e+03,1.194207675596642275e+03,1.202585636320638741e+03,1.211383423322620274e+03,1.220559908082302172e+03,1.230071761179389568e+03,1.239873704959531779e+03,1.249918774888432836e+03,1.260158587543837257e+03,1.270543613157542040e+03,1.281023450603251604e+03,1.291547102731767609e+03,1.302063249982033994e+03,1.312520520244940826e+03,1.322867753025776437e+03,1.333054256039746861e+03,1.343030052482187784e+03,1.352746117339345574e+03,1.362154601245248159e+03,1.371209040543689525e+03,1.379864552379301585e+03,1.388078013816306338e+03,1.395808224165386946e+03,1.403016049885793336e+03,1.409664551619189979e+03,1.415719093101095268e+03,1.421147431883013496e+03,1.425919791980913487e+03,1.430008918741584466e+03,1.433390116385293368e+03,1.436041268839173881e+03,1.437942844619246898e+03,1.439077886648045023e+03,1.439431988008495637e+03,1.438993254731578190e+03,1.437752256794699861e+03,1.435701968568974280e+03,1.432837699996537822e+03,1.429157019803369849e+03,1.424659672059378408e+03,1.419347487385959994e+03,1.413224290082783227e+03,1.406295802401110677e+03,1.398569547131701938e+03,1.390054749602685888e+03,1.380762240098344819e+03,1.370704357615053823e+03,1.359894855767642412e+03,1.348348811550030405e+03,1.336082537539896748e+03,1.323113498020673887e+03,1.309460229376805955e+03,1.295142265002218437e+03,1.280180064848923394e+03,1.264594949634381692e+03,1.248409039624226807e+03,1.231645197812684955e+03,1.214326977237668643e+03,1.196478572092259128e+03,1.178124772229866721e+03,1.159290920607514408e+03,1.140002873170900102e+03,1.120286960656258543e+03,1.100169951767705015e+03,1.079679017184590066e+03,1.058841693860749047e+03,1.037685849096228139e+03,1.016239643891064361e+03
1.276089007427606475e+03,1.278432284553483441e+03,1.279962724428100728e+03,1.280701014032084004e+03,1.280670733704063650e+03,1.279898306510062866e+03,1.278412933665269065e+03,1.276246515744333237e+03,1.273433559493225857e+03,1.270011070139932144e+03,1.266018429192705980e+03,1.261497257812624184e+03,1.256491265951054856e+03,1.251046087551507753e+03,1.245209102228492156e+03,1.239029243952136994e+03,1.232556797385677783e+03,1.225843182641853900e+03,1.218940729343019484e+03,1.211902440986613783e+03,1.204781750731379361e+03,1.197632269828949802e+03,1.190507530028825386e+03,1.183460721380541372e+03,1.176544426944338738e+03,1.169810355998630484e+03,1.163309077398719410e+03,1.157089754794495093e+03,1.151199885454786454e+03,1.145685044471443689e+03,1.140588636126114807e+03,1.135951654196740492e+03,1.131812452958218728e+03,1.128206530592195350e+03,1.125166326664567578e+03,1.122721035255975494e+03,1.120896435240358869e+03,1.119714739100544648e+03,1.119194461548040863e+03,1.119350309077758084e+03,1.120193091438389274e+03,1.121729655837182236e+03,1.123962844524386583e+03,1.126891476220847380e+03,1.130510351662321455e+03,1.134810283339062380e+03,1.139778149310569461e+03,1.145396970775484988e+03,1.151646012877322619e+03,1.158500908030571964e+03,1.165933800860715564e+03,1.173913513667929919e+03,1.182405731150080783e+03,1.191373202958028969e+03,1.200775962506779251e+03,1.210571560332144827e+03,1.220715310165246592e+03,1.231160545798136354e+03,1.241858886734269163e+03,1.252760510558403666e+03,1.263814429922377258e+03,1.274968772026793204e+03,1.286171058483892239e+03,1.297368483473964261e+03,1.308508188155774633e+03,1.319537529360651206e+03,1.330404340688377943e+03,1.341057184230561688e+03,1.351445591271477497e+03,1.361520290456530347e+03,1.371233422072285748e+03,1.380538737247497238e+03,1.389391781059639015e+03,1.397750058713923409e+03,1.405573184149145163e+03,1.412823010614609075e+03,1.419463742952634220e+03,1.425462031508935752e+03,1.430787047776640293e+03,1.435410542056281201e+03,1.439306883581774400e+03,1.442453083719260121e+03,1.444828802989866745e+03,1.446416342797426069e+03,1.447200622856551490e+03,1.447169145414222612e+03,1.446311947438177867e+03,1.444621542007497283e+03,1.442092850184412100e+03,1.438723124671568030e+03,1.434511866565920855e+03,1.429460736509796106e+03,1.423573461511824917e+03,1.416855738666871048e+03,1.409315136945556105e+03,1.400960998152105958e+03,1.391804338065588581e+03,1.381857748685700926e+03,1.371135302402125490e+03,1.359652458797816053e+03,1.347425974683394315e+03,1.334473817844104815e+03,1.320815084864347909e+03,1.306469923279613340e+03,1.291459458193455021e+03,1.275805723389707509e+03,1.259531596868902852e+03,1.242660740644423640e+03,1.225217544549312834e+03,1.207227073730143047e+03,1.188715019440617880e+03,1.169707652695397428e+03,1.150231780304385211e+03,1.130314702779614208e+03,1.109984173590986757e+03,1.089268359243238592e+03,1.068195799654149369e+03,1.046795368332843054e+03,1.025096231886023361e+03
1.266036144660913806e+03,1.267921331731750342e+03,1.268991473718233919e+03,1.269268513108140041e+03,1.268777323629241437e+03,1.267545654362529604e+03,1.265604059726807463e+03,1.262985815104844505e+03,1.259726817958347283e+03,1.255865474362940859e+03,1.251442570985318980e+03,1.246501132622091745e+03,1.241086265522511439e+03,1.235244986825244723e+03,1.229026040550862945e+03,1.222479700706545600e+03,1.215657562176076908e+03,1.208612320185542558e+03,1.201397539251989883e+03,1.194067412637388770e+03,1.186676513442060923e+03,1.179279538579188966e+03,1.171931046973428693e+03,1.164685193420853238e+03,1.157595459632872689e+03,1.150714384062476711e+03,1.144093292175267152e+03,1.137782028879777272e+03,1.131828694869899664e+03,1.126279388656357241e+03,1.121177956072612915e+03,1.116565749033660040e+03,1.112481395302235569e+03,1.108960580976569418e+03,1.106035847356463137e+03,1.103736403770053585e+03,1.102087957852899081e+03,1.101112564663779949e+03,1.100828495899239897e+03,1.101250130331689888e+03,1.102387866445215195e+03,1.104248058080438568e+03,1.106832973725988040e+03,1.110140779911375830e+03,1.114165548965737798e+03,1.118897291211316542e+03,1.124322011461212924e+03,1.130421789490517767e+03,1.137174883950099229e+03,1.144555858995643348e+03,1.152535732712920890e+03,1.161082146236210747e+03,1.170159552281990045e+03,1.179729421657018520e+03,1.189750466150192324e+03,1.200178876083159366e+03,1.210968570677123807e+03,1.222071459293992120e+03,1.233437711530219303e+03,1.245016034082393162e+03,1.256753952265495855e+03,1.268598094048184066e+03,1.280494474474934577e+03,1.292388778371871695e+03,1.304226639281566804e+03,1.315953912641393117e+03,1.327516941308961577e+03,1.338862811645861257e+03,1.349939598495877135e+03,1.360696597534354396e+03,1.371084543619730312e+03,1.381055813944277133e+03,1.390564614956864489e+03,1.399567152213504642e+03,1.408021782499569326e+03,1.415889147758122363e+03,1.423132290549681557e+03,1.429716750957296426e+03,1.435610645034947083e+03,1.440784725074470998e+03,1.445212422134730105e+03,1.448869871434117840e+03,1.451735921352453715e+03,1.453792126918877784e+03,1.455022728777443945e+03,1.455414618720350518e+03,1.454957292959672031e+03,1.453642794371010268e+03,1.451465644986767302e+03,1.448422770042552202e+03,1.444513414887752106e+03,1.439739056061159317e+03,1.434103307805439272e+03,1.427611825251115533e+03,1.420272205442868199e+03,1.412093887309725005e+03,1.403088051597582080e+03,1.393267521689403793e+03,1.382646666136784461e+03,1.371241303618764732e+03,1.359068610931211197e+03,1.346147034495129901e+03,1.332496205756584459e+03,1.318136860736465678e+03,1.303090763876992924e+03,1.287380636225108901e+03,1.271030087892573420e+03,1.254063554639844369e+03,1.236506238347038106e+03,1.218384051061507307e+03,1.199723562248535927e+03,1.180551948820184634e+03,1.160896947477688173e+03,1.140786808875292309e+03,1.120250253098050962e+03,1.099316425942596879e+03,1.078014855498000315e+03,1.056375408542744253e+03,1.034428246303142032e+03
1.255897295161601505e+03,1.257315006952181420e+03,1.257914386940462009e+03,1.257718703274689460e+03,1.256754198242518441e+03,1.255050026607107839e+03,1.252638179606726908e+03,1.249553394426850673e+03,1.245833049030562279e+03,1.241517042317442701e+03,1.236647659671241627e+03,1.231269424053484045e+03,1.225428932901871349e+03,1.219174681198924645e+03,1.212556871186460285e+03,1.205627209314713355e+03,1.198438691129524614e+03,1.191045374916548326e+03,1.183502145036125512e+03,1.175864465995466617e+03,1.168188128414347375e+03,1.160528988145865014e+03,1.152942699912855005e+03,1.145484446912614430e+03,1.138208667925905047e+03,1.131168783539597371e+03,1.124416923154568167e+03,1.118003654500371567e+03,1.111977717414723884e+03,1.106385763668063191e+03,1.101272104620232994e+03,1.096678468487849614e+03,1.092643768975309058e+03,1.089203886980782954e+03,1.086391467029697196e+03,1.084235730012760541e+03,1.082762303713477650e+03,1.081993072502085624e+03,1.081946047449367370e+03,1.082635257975619652e+03,1.084070665998856612e+03,1.086258103382389891e+03,1.089199233307807845e+03,1.092891536015746169e+03,1.097328319166034817e+03,1.102498752872655587e+03,1.108387929269141068e+03,1.114976946259187116e+03,1.122243014907004408e+03,1.130159589724961052e+03,1.138696520924133210e+03,1.147820227509032520e+03,1.157493889922868902e+03,1.167677660786466959e+03,1.178328892124125332e+03,1.189402377335374013e+03,1.200850606053811362e+03,1.212624029935227327e+03,1.224671337337312934e+03,1.236939734794293827e+03,1.249375233151773728e+03,1.261922936210908574e+03,1.274527329736731417e+03,1.287132568712859211e+03,1.299682760773747532e+03,1.312122243815344746e+03,1.324395855874501876e+03,1.336449195475747047e+03,1.348228870769566356e+03,1.359682735927394788e+03,1.370760113413590716e+03,1.381412000921287017e+03,1.391591261935418743e+03,1.401252799069963430e+03,1.410353709515039782e+03,1.418853422120960886e+03,1.426713815837616949e+03,1.433899319417008428e+03,1.440376992471288759e+03,1.446116588156653734e+03,1.451090597922353709e+03,1.455274278922143139e+03,1.458645664830916530e+03,1.461185560940371033e+03,1.462877524523027887e+03,1.463707831552793095e+03,1.463665430951413555e+03,1.462741887593288538e+03,1.460931315345758776e+03,1.458230301448161981e+03,1.454637823540884256e+03,1.450155160645929300e+03,1.444785799373725013e+03,1.438535336588297696e+03,1.431411379705431727e+03,1.423423445727644548e+03,1.414582860037242199e+03,1.404902655875974915e+03,1.394397475338857930e+03,1.383083472602350639e+03,1.370978219995213749e+03,1.358100617405966659e+03,1.344470805405941746e+03,1.330110082353122380e+03,1.315040825631342386e+03,1.299286417073481744e+03,1.282871172517654713e+03,1.265820275353491297e+03,1.248159713832577154e+03,1.229916221844114034e+03,1.211117222794641521e+03,1.191790776179846489e+03,1.171965526397612166e+03,1.151670653324570821e+03,1.130935824163611414e+03,1.109791146066873807e+03,1.088267119047229698e+03,1.066394588710570588e+03,1.044204698370720280e+03
